# .PCD v0.7 - Point Cloud Data file format
VERSION 0.7
FIELDS x y z
SIZE 4 4 4
TYPE F F F
COUNT 1 1 1
WIDTH 295
HEIGHT 1
VIEWPOINT 0 0 0 1 0 0 0
POINTS 295
DATA ascii
14.428779 -12.547168 -0.89170003
14.377378 -12.590876 -0.89123416
14.486898 -12.686787 -0.44708636
14.299581 -12.606774 -0.88899821
14.397951 -12.778605 -0.4469471
14.32568 -12.808636 -0.4461579
14.535292 -12.996051 0
14.138973 -12.726319 -0.44165507
14.478738 -13.032138 0
14.380604 -13.030391 0
14.350728 -13.00332 2.7216694
14.350462 -13.094589 -0.9059546
14.397634 -13.137632 -0.45251769
14.323214 -13.069725 0
14.2716 -13.022628 2.7152674
14.33779 -13.170426 -0.45200706
14.197707 -13.041749 2.7094221
14.395942 -13.316794 -0.45530298
14.247132 -13.179139 0
14.255036 -13.18645 0.45084652
14.228733 -13.162119 0.90390491
14.230002 -13.163294 1.3555079
14.208919 -13.14379 1.8058194
14.107025 -13.049535 2.7007933
14.195859 -13.223962 -0.90474337
14.186976 -13.215687 -0.45015019
14.156253 -13.187067 0.44917536
14.144695 -13.176301 0.90148258
14.164989 -13.195206 1.3536941
14.136726 -13.168878 1.8024753
14.123819 -13.156855 2.2572727
14.046898 -13.085199 2.69801
14.100923 -13.223135 -0.90148258
14.097857 -13.220261 -0.44871113
14.066644 -13.190989 0
14.077439 -13.201113 0.44806123
14.054288 -13.179403 0.89850116
14.039655 -13.165681 1.3458813
14.042139 -13.16801 1.7959729
14.03809 -13.164213 2.2505362
13.955753 -13.087003 2.6888247
14.006149 -13.221823 -0.89822173
14.000145 -13.216155 -0.44699353
13.973376 -13.190885 0
13.981242 -13.19831 0.44639003
13.962564 -13.180679 0.89542669
13.952395 -13.17108 1.341696
13.94916 -13.168025 1.7896562
13.939467 -13.158875 2.2417085
13.863312 -13.086984 2.6793606
13.914435 -13.222781 -0.89514726
13.909861 -13.218433 -0.445508
13.896211 -13.205462 0
13.893917 -13.203282 0.4449974
13.873886 -13.184247 0.89253861
13.868146 -13.178793 1.3377897
13.852007 -13.163456 1.7827822
13.842477 -13.154399 2.2331135
13.802608 -13.116512 2.6760206
13.819696 -13.229482 -0.89216584
13.815101 -13.225081 -0.44402254
13.785595 -13.196836 0
13.800657 -13.211255 0.44355831
13.780731 -13.192181 0.8896504
13.769309 -13.181246 1.3329067
13.756197 -13.168694 1.7766514
13.748251 -13.161087 2.2256799
13.729148 -13.225707 -0.88899821
13.721644 -13.218479 -0.44235134
13.699416 -13.197066 0
13.714444 -13.211543 0.44211924
13.687422 -13.185512 0.88629639
13.678978 -13.177377 1.3281633
13.668865 -13.167635 1.7707062
13.659626 -13.158734 2.2180138
13.634144 -13.226252 -0.88583052
13.626628 -13.218961 -0.44077304
13.618814 -13.211381 0
13.618015 -13.210606 0.44049451
13.598294 -13.191475 0.88350141
13.591369 -13.184756 1.3241173
13.575652 -13.16951 1.7645752
13.570837 -13.16484 2.2110448
13.421652 -13.020118 3.0721841
13.537873 -13.224902 -0.88256967
13.511096 -13.198744 0
13.52462 -13.211955 0.43896258
13.507862 -13.195585 0.88061321
13.491029 -13.17914 1.3188158
13.484015 -13.17229 1.7586303
13.480749 -13.169099 2.2038436
13.454694 -13.143646 2.6434541
13.353534 -13.044824 3.0669961
13.446935 -13.223495 -0.8794952
13.4259 -13.202809 0
13.435113 -13.21187 0.43747711
13.411325 -13.188478 0.87716603
13.394824 -13.172251 1.7526851
13.386014 -13.163588 2.1954806
13.358784 -13.13681 2.6331551
13.276429 -13.055823 3.0592144
13.351011 -13.221152 -0.87623435
13.324308 -13.194709 0
13.34345 -13.213665 0.43599159
13.324039 -13.194444 0.87446421
13.302071 -13.172688 1.7465543
13.291996 -13.162711 2.1875825
13.267815 -13.138765 2.6242483
13.205536 -13.077092 3.0533781
13.260403 -13.21881 -0.87315989
13.236568 -13.19505 0
13.251411 -13.209846 0.43441328
13.216005 -13.174552 1.7409807
13.207474 -13.166047 2.1808457
13.173676 -13.132356 2.6142278
13.127154 -13.085979 3.0452719
13.169059 -13.219723 -0.87017846
13.142439 -13.193 0
13.153008 -13.203609 0.43269566
13.122154 -13.172637 1.7346642
13.113768 -13.164218 2.1729474
13.087221 -13.137569 2.6061559
13.042396 -13.092572 3.0361931
13.084397 -13.222139 -0.8674767
13.052194 -13.189596 0
13.064147 -13.201675 0.43121019
13.032176 -13.169368 1.7285334
13.030919 -13.168097 2.1664429
13.000398 -13.137255 2.597527
12.958651 -13.095068 3.0267901
12.99006 -13.214166 -0.86412269
12.964919 -13.188592 0
12.978247 -13.202148 0.42981756
12.945158 -13.168489 1.722774
12.939834 -13.163074 2.1585448
12.909554 -13.132272 2.5880632
12.897171 -13.119674 3.0225751
12.7876 -13.008212 3.4367933
12.903866 -13.223083 -0.86160713
12.877382 -13.195944 0
12.883688 -13.202407 0.42828563
12.848128 -13.165967 1.7162716
12.848493 -13.16634 2.1513433
12.821221 -13.138394 2.5799911
12.806268 -13.123071 3.0125237
12.687674 -13.001542 3.4227216
12.820538 -13.22053 -0.85881215
12.800389 -13.199752 0.42689297
12.7665 -13.164806 1.7108839
12.761431 -13.159578 2.1436775
12.728868 -13.126 2.5696924
12.730632 -13.127818 3.0044177
12.593405 -12.98631 3.4082799
12.724422 -13.213395 -0.85545808
12.707081 -13.195388 0.42531464
12.681792 -13.169127 1.7056819
12.687859 -13.175426 2.1390314
12.681601 -13.168928 2.5694141
12.692942 -13.180705 3.0063632
12.520731 -13.001877 3.4008737
12.654295 -13.228089 -0.85368794
12.674309 -13.24901 0.425686
12.677971 -13.252839 1.7110695
12.692158 -13.267669 2.1471617
12.689883 -13.265291 2.5799911
12.679176 -13.254099 3.0134964
12.472113 -13.037645 3.3993926
12.649323 -13.315635 -0.85648298
12.670674 -13.338111 0.42712507
12.676892 -13.344656 1.7172004
12.681339 -13.349338 2.1532016
12.673511 -13.341097 2.5861146
12.594775 -13.258214 3.0044177
12.385916 -13.038353 3.3882837
12.646634 -13.406211 -0.85946429
12.667944 -13.428801 0.42861059
12.682159 -13.44387 1.7242602
12.6851 -13.446987 2.161797
12.69074 -13.452966 2.5991969
12.514561 -13.266205 2.9963114
12.317401 -13.057204 3.3819883
12.647189 -13.496184 -0.86253881
12.65889 -13.50867 -0.42981756
12.672562 -13.523259 0.43028173
12.679719 -13.530897 1.7300196
12.694771 -13.54696 2.1710889
12.693457 -13.545557 2.6089392
12.425967 -13.260112 2.9856117
12.243124 -13.064995 3.3734715
12.640831 -13.584123 -0.8653338
12.679891 -13.626097 1.736522
12.693416 -13.640631 2.1789873
12.694669 -13.641978 2.6189597
12.370194 -13.293291 2.9833419
12.169328 -13.077435 3.365695
12.68465 -13.722177 1.743396
12.692609 -13.730786 2.1866531
12.693725 -13.731994 2.628145
12.092541 -13.081636 3.3564372
12.69295 -13.822834 1.7508274
12.691344 -13.821085 2.194319
12.696343 -13.82653 2.6381655
12.708904 -13.840209 3.0870993
12.124866 -13.204181 3.3775446
12.687812 -13.919301 1.757144
12.695469 -13.927701 2.2038436
12.69628 -13.928592 2.6487427
12.701965 -13.934828 3.0977993
12.056529 -13.226746 3.3719904
12.685693 -14.010014 1.7632748
12.695879 -14.021263 2.2119739
12.692561 -14.017599 2.6576498
12.702048 -14.028077 3.1091475
11.98094 -13.231688 3.3631029
12.684644 -14.107515 1.769963
12.694674 -14.11867 2.2203369
12.692549 -14.116308 2.6679485
12.708426 -14.133965 3.1227655
11.8992 -13.233967 3.3531046
12.686872 -14.204456 1.776837
12.695422 -14.214028 2.2286999
12.693163 -14.211499 2.677969
12.702238 -14.221661 3.1328173
11.815971 -13.22938 3.3419955
12.684633 -14.297093 1.7831538
12.694359 -14.308055 2.2368302
12.698544 -14.312772 2.6891029
12.702161 -14.31685 3.14449
11.735513 -13.227323 3.3316271
12.679528 -14.397289 1.789842
12.68647 -14.405172 2.2447283
12.687887 -14.406781 2.69801
12.69134 -14.410703 3.1548655
11.650583 -13.228949 3.3212585
12.681539 -14.496211 1.7969018
12.688331 -14.503976 2.253556
12.686986 -14.502439 2.7080302
12.674668 -14.488358 3.1626472
11.582061 -13.239404 3.3142228
12.679113 -14.590794 1.8034042
12.688376 -14.601453 2.2621512
12.68949 -14.602735 2.7188859
12.660211 -14.56904 3.1710777
11.526491 -13.264386 3.3108897
12.674937 -14.68924 1.8100923
12.68924 -14.705814 2.2714434
12.685019 -14.700922 2.7289064
12.64409 -14.653488 3.179832
11.478837 -13.303054 3.3105197
12.674107 -14.787134 1.8169664
12.681771 -14.796077 2.2788768
12.687755 -14.803057 2.7400403
12.632673 -14.738793 3.189235
12.67662 -14.894977 1.8247694
12.686693 -14.906813 2.289098
12.684782 -14.904568 2.7506175
12.618242 -14.826383 3.1986382
12.679818 -15.004539 1.8327581
12.684587 -15.010182 2.2981579
12.690203 -15.016828 2.7631428
12.603352 -14.914053 3.208041
12.677362 -15.102937 1.839632
12.689659 -15.117586 2.308147
12.691269 -15.119504 2.7742767
12.584278 -14.992043 3.2158227
12.675667 -15.203014 1.8466918
12.687797 -15.217563 2.3169744
12.687987 -15.217792 2.7845757
12.57367 -15.080682 3.2258742
12.675988 -15.306314 1.8541232
12.687945 -15.320751 2.3262665
12.687984 -15.320798 2.7957096
12.557581 -15.163336 3.2346289
12.674178 -15.418819 1.8621119
12.687207 -15.43467 2.3364875
12.683309 -15.429928 2.8071215
12.534504 -15.248899 3.2430592
12.672092 -15.520923 1.8693575
12.689976 -15.542826 2.3464766
12.685931 -15.537871 2.8190906
12.516318 -15.330128 3.2514894
12.676996 -15.632461 1.8777177
12.690914 -15.649623 2.3562331
12.69172 -15.650617 2.8318946
12.50519 -15.4206 3.2618651
12.674804 -15.741759 1.8855206
12.686042 -15.755716 2.3655252
12.684212 -15.753444 2.8424718
12.484705 -15.505662 3.2706196
12.666064 -15.838136 1.892023
12.656058 -15.825623 2.3697066
12.464033 -15.585508 3.2787256
12.67275 -15.960399 2.8641827
12.448823 -15.678379 3.2891011
12.665245 -16.060019 1.9081863
