# .PCD v0.7 - Point Cloud Data file format
VERSION 0.7
FIELDS x y z
SIZE 4 4 4
TYPE F F F
COUNT 1 1 1
WIDTH 115
HEIGHT 1
VIEWPOINT 0 0 0 1 0 0 0
POINTS 115
DATA ascii
-22.159676 -20.093159 4.9145217
-22.158722 -19.958817 4.8996067
-22.159805 -19.688242 4.8701005
-22.160324 -19.550705 4.8551855
-22.161877 -19.285402 4.8266525
-22.149563 -19.145983 4.8101163
-22.160847 -19.020998 4.7981191
-22.156511 -18.883358 4.7828798
-22.169302 -18.767698 4.7721796
-22.158913 -18.633112 4.7566166
-22.15868 -18.501261 4.7426739
-22.156109 -18.374763 4.7290559
-22.166788 -18.253408 4.7177076
-22.156925 -18.122324 4.7027922
-22.16643 -18.001326 4.6914439
-22.15995 -17.874441 4.6775017
-22.159052 -17.746397 4.6642075
-22.168339 -17.627182 4.6531835
-22.16317 -17.503422 4.6398892
-22.171402 -17.390854 4.6295137
-22.158792 -17.256363 4.6142745
-22.1675 -17.145355 4.6042233
-22.164602 -17.019794 4.5912533
-22.165997 -16.90431 4.579905
-22.168221 -16.783953 4.5682321
-22.163816 -16.665277 4.5559111
-22.169664 -16.548851 4.5452113
-22.167042 -16.426712 4.5328898
-22.167351 -16.313341 4.5218658
-22.165558 -16.198984 4.5105171
-22.166052 -16.080956 4.4991689
-22.163214 -15.966985 4.4878206
-22.16584 -15.851641 4.4771204
-22.17115 -15.738755 4.4670691
-22.166763 -15.625348 4.4557204
-22.166719 -15.515541 4.4453449
-22.168325 -15.395915 4.4343204
-22.165642 -15.285344 4.4236207
-22.170612 -15.180541 4.4145422
-22.172869 -15.068664 4.4044905
-22.165457 -14.956422 4.3931422
-22.173258 -14.849303 4.3843875
-22.151705 -14.728715 4.3704453
-22.165098 -14.626294 4.3629875
-22.144148 -14.507289 4.3493695
-22.153288 -14.403008 4.3412638
-22.140413 -14.284932 4.3289423
-22.137806 -14.1795 4.3192153
-22.14719 -14.076735 4.3114333
-22.150354 -13.975834 4.3030033
-22.143055 -13.868781 4.2926273
-22.148476 -13.75941 4.2838731
-22.146946 -13.656881 4.2747941
-22.146666 -13.555546 4.2660394
-22.15336 -13.453576 4.2582579
-22.150526 -13.351512 4.2491789
-22.151266 -13.246762 4.2404246
-22.153242 -13.143176 4.2319946
-22.152487 -13.043606 4.2235641
-22.146204 -12.941195 4.2141609
-22.153679 -12.842044 4.2070274
-22.1556 -12.740038 4.1989217
-22.160015 -12.644979 4.1917882
-22.164043 -12.55003 4.1846547
-22.180185 -12.457124 4.1794672
-22.178276 -12.359485 4.1713614
-22.160826 -12.248583 4.1600127
-22.146339 -12.139848 4.149313
-22.163935 -12.054081 4.1450977
-22.181206 -11.968333 4.1408825
-22.166836 -11.865838 4.1308312
-22.178276 -12.359485 4.1713614
-22.160826 -12.248583 4.1600127
-22.146339 -12.139848 4.149313
-22.163935 -12.054081 4.1450977
-22.181206 -11.968333 4.1408825
-22.166836 -11.865838 4.1308312
-22.156136 -11.755837 4.1207795
-22.133869 -11.650132 4.1094313
-22.063915 -11.520037 4.0893283
-21.939249 -11.357662 4.0588493
-21.917101 -11.254194 4.0478253
-21.856005 -11.126585 4.0293436
-21.822474 -11.013767 4.0160499
-21.761814 -10.89275 3.9982164
-21.677607 -10.760864 3.9761682
-21.658283 -10.661898 3.9661164
-21.62804 -10.548699 3.9534712
-21.582951 -10.438251 3.9388804
-21.505337 -10.312866 3.9184532
-21.480602 -10.213528 3.9077535
-21.475058 -10.11914 3.9002955
-21.426207 -10.004867 3.8850563
-21.366137 -9.8906488 3.8681958
-21.30187 -9.770751 3.8503628
-21.255106 -9.6641159 3.8360958
-21.22406 -9.5652018 3.8247476
-21.199503 -9.4608049 3.8140476
-21.144125 -9.3521338 3.7984838
-21.090071 -9.2447262 3.7832446
-21.000925 -9.1183901 3.7615206
-20.9259 -9.0034571 3.7427144
-20.8755 -8.8955421 3.7281237
-20.846418 -8.7973013 3.7174237
-20.797184 -8.6953888 3.7034814
-20.736561 -8.5893669 3.6875935
-20.622169 -8.4577694 3.6619785
-20.545509 -8.3426666 3.6431723
-20.450388 -8.2251492 3.6214485
-20.376295 -8.1128368 3.603291
-20.324139 -8.0140905 3.5893486
-20.172283 -7.877017 3.5578971
-20.107128 -7.7667618 3.5413609
-19.983463 -7.6429358 3.5150974
-19.909035 -7.5388851 3.4975884
