# .PCD v0.7 - Point Cloud Data file format
VERSION 0.7
FIELDS x y z
SIZE 4 4 4
TYPE F F F
COUNT 1 1 1
WIDTH 100
HEIGHT 1
VIEWPOINT 0 0 0 1 0 0 0
POINTS 100
DATA ascii
6.0873437 -5.2211714 -2.0994544
6.0427265 -5.2196236 -2.0903375
6.0049448 -5.221859 -2.0832465
5.9561138 -5.2160196 -2.0726097
5.9271731 -5.2255054 -2.0685577
5.87251 -5.2120256 -1.4793653
5.6499906 -5.2264562 -2.0148685
5.6019831 -5.218452 -2.0042319
5.5719452 -5.2250896 -1.9996734
5.5781918 -5.2309475 -1.6254537
5.5669341 -5.2203903 -1.4378912
5.533483 -5.2236152 -1.9920758
5.5480118 -5.23733 -1.6217113
5.5281544 -5.2185845 -1.4323367
5.4908853 -5.2179461 -1.9829588
5.5093417 -5.2354851 -1.615474
5.4965711 -5.2233496 -1.4286337
5.4715133 -5.2378345 -1.2444372
5.4563498 -5.2233186 -1.9773873
5.479826 -5.2457924 -1.7974402
5.4773974 -5.2434673 -1.6117315
5.4408178 -5.2413058 -1.2411947
5.4259796 -5.2270117 -1.9723223
5.4394922 -5.2400293 -1.7896012
5.4327197 -5.2335048 -1.6034151
5.4026575 -5.2410269 -1.2366554
5.3799262 -5.2189751 -1.9621922
5.4044061 -5.242723 -1.7840677
5.3975687 -5.2360897 -1.5984251
5.3645658 -5.2405467 -1.232116
5.3561392 -5.2323151 -1.9601662
5.3791118 -5.2547565 -1.7817621
5.3582673 -5.2343941 -1.5921879
5.3274579 -5.238935 -1.2275766
5.3339047 -5.2452745 -1.7725397
5.3283262 -5.239789 -1.5884454
5.2965174 -5.2450008 -1.2246585
5.3052778 -5.2536759 -1.9545946
5.3155632 -5.2638612 -1.7725397
5.3183441 -5.2666154 -1.5909405
5.2930722 -5.2764697 -1.2279009
5.3015294 -5.2849002 -1.9596597
5.3187523 -5.3020692 -1.7794566
5.3160901 -5.2994156 -1.5955144
5.3117242 -5.332159 -1.9702963
5.3194404 -5.3399053 -1.7859122
5.3182693 -5.3387294 -1.6017518
5.300818 -5.3566203 -1.9728287
5.322237 -5.3782654 -1.792829
5.3170485 -5.3730221 -1.6067417
5.3288651 -5.4207993 -0.53154433
5.3087969 -5.4003849 -1.9824524
5.3225164 -5.414341 -1.6138108
5.3184071 -5.410161 -1.4293742
5.3228951 -5.4545736 -0.53293943
5.2984266 -5.4294996 -1.9859979
5.3203979 -5.4520144 -1.6192164
5.3163867 -5.4479041 -1.4341882
5.3210115 -5.4870234 -0.53447407
5.309629 -5.4752855 -1.9966344
5.3141389 -5.4799366 -1.622543
5.304719 -5.4702225 -1.4356694
5.3212008 -5.5256839 -0.53642732
5.303905 -5.5077233 -2.0016994
5.318047 -5.5224085 -1.629612
5.3142219 -5.5184364 -1.4434458
5.3193974 -5.5605989 -0.53810143
5.3162713 -5.5573316 -1.4490004
5.3246889 -5.6051707 -0.5406127
5.3036089 -5.5829802 -1.4508519
5.3228884 -5.6425896 -0.54242635
5.3178048 -5.6372008 -1.4601095
5.2993894 -5.6551323 -1.2732947
5.3259754 -5.6835036 -0.54465854
5.321558 -5.6787891 -1.8440131
5.3071456 -5.6634097 -1.4623313
5.287684 -5.6822643 -1.2752401
5.2848358 -5.679204 -1.0902822
5.3264914 -5.723968 -0.54675126
5.3087668 -5.7049208 -1.4682562
5.3183784 -5.7533889 -1.287237
5.2901726 -5.7228761 -1.0952924
5.3250861 -5.7606454 -0.54856491
5.299345 -5.7327986 -2.0437393
5.3071632 -5.7412562 -1.4730701
5.3126183 -5.7855301 -1.2904794
5.2966175 -5.7681046 -1.1005809
5.2878313 -5.7585363 -0.72938752
5.3221469 -5.795907 -0.55023909
5.2986259 -5.7702918 -2.0508301
5.3133526 -5.7863297 -1.480106
5.308661 -5.8239236 -1.2946945
5.2874484 -5.8006525 -1.1030861
5.2841291 -5.7970109 -0.7318027
5.3223729 -5.8389668 -0.55247128
5.3165426 -5.8325706 -2.0660253
5.3238859 -5.8406262 -1.4889933
5.2946172 -5.8473482 -1.2959915
5.2947707 -5.8475175 -1.1086531
5.2809157 -5.8322163 -0.73403215
