# .PCD v0.7 - Point Cloud Data file format
VERSION 0.7
FIELDS x y z
SIZE 4 4 4
TYPE F F F
COUNT 1 1 1
WIDTH 703
HEIGHT 1
VIEWPOINT 0 0 0 1 0 0 0
POINTS 703
DATA ascii
-0.75273001 3.2423532 -1.8702054
-0.90964663 3.9182651 -0.56532121
-0.81345958 3.5039432 -1.9126273
-0.75300902 3.2435551 -1.5761303
-0.74062991 3.2415617 -1.8682461
-0.84488273 3.6978514 -2.01685
-0.74208409 3.247926 -1.5769858
-0.73408717 3.2627118 -1.8790226
-0.7238248 3.2703614 -1.8819616
-0.72963488 3.2966125 -1.7952594
-0.71917915 3.2493718 -1.5752746
-0.71757025 3.2938375 -1.7924426
-0.77033669 3.5360494 -1.5116289
-0.70311016 3.2825089 -1.7849311
-0.7564435 3.5314987 -1.5085455
-0.71275324 3.3851788 -2.0515928
-0.68651873 3.2605796 -1.8721648
-0.6894654 3.2745748 -1.7792974
-0.69582856 3.304796 -1.2292204
-0.70570886 3.4077377 -2.0638349
-0.67605513 3.2645454 -1.8731445
-0.67573702 3.2630093 -1.7717859
-0.69315565 3.3471208 -1.1549821
-0.66974944 3.2889805 -1.8858802
-0.66632289 3.2721536 -1.7755415
-0.67902845 3.3345475 -1.1498603
-0.66101342 3.3020501 -1.7905647
-0.66402286 3.3170834 -1.2312725
-0.67094135 3.3516443 -1.1549821
-0.63975281 3.2548378 -1.2073311
-0.66148216 3.3653891 -0.98347414
-0.63551658 3.2939906 -1.8849007
-0.68143505 3.5319939 -1.9126273
-0.62838966 3.2570508 -1.2073311
-0.64936888 3.3657897 -0.98292285
-0.62166721 3.2806618 -1.8760835
-0.63053101 3.3274379 -1.2326405
-0.63748717 3.3641467 -0.98182034
-0.61180419 3.2913835 -1.8809819
-0.659347 3.5471542 -1.5070038
-0.62714469 3.3739121 -0.98402542
-0.5980702 3.2779565 -1.8721648
-0.6479125 3.5511365 -1.5077746
-0.63648826 3.5588264 -1.5100871
-0.58467913 3.3363061 -2.008745
-0.6581133 3.7553377 -2.0271783
-0.59170616 3.3764038 -0.98292285
-0.57920468 3.3707683 -0.98071772
-0.64075178 3.8045044 -0.54221845
-0.55499643 3.3670452 -0.9785127
-0.54689234 3.3878465 -0.98402542
-0.53296405 3.376442 -0.98016649
-0.51083946 3.3857503 -1.8206109
-0.49300173 3.267525 -1.5641509
-0.5154202 3.4161103 -0.9906407
-0.49058995 3.3262808 -1.7877477
-0.46573696 3.3999536 -0.98402542
-0.44295236 3.4965127 -1.56919
-0.40430564 3.2833235 -1.5658623
-0.43498799 3.5324919 -1.584646
-0.39449105 3.2936206 -1.5701406
-0.42088199 3.5139596 -1.5756978
-0.3859129 3.3201165 -1.5821198
-0.37611654 3.3321559 -1.5872539
-0.39715585 3.5185511 -0.75264037
-0.34890923 3.1909966 -1.8035873
-0.36880785 3.3729823 -1.6060784
-0.36576459 3.3451498 -1.1370555
-0.3786476 3.4629729 -0.99890983
-0.3593134 3.3958216 -1.6163464
-0.36898386 3.487216 -1.0055251
-0.34077704 3.3260145 -1.2169076
-0.30977726 3.3584092 -1.1396165
-0.31291825 3.5270407 -0.75264037
-0.26803738 3.573112 -2.0132384
-0.25521266 3.4021504 -1.8140382
-0.24464896 3.2613294 -1.4561173
-0.24220096 3.3871684 -1.8055878
-0.23339278 3.2639863 -1.4569308
-0.23036587 3.3791437 -1.8008931
-0.26803738 3.573112 -2.0132384
-0.25521266 3.4021504 -1.8140382
-0.24464896 3.2613294 -1.4561173
-0.24220096 3.3871684 -1.8055878
-0.23339278 3.2639863 -1.4569308
-0.23036587 3.3791437 -1.8008931
-0.20773503 3.3867311 -1.9064536
-0.20220071 3.2965043 -1.5632954
-0.19408028 3.3456244 -1.8829412
-0.19126865 3.2971568 -1.5632954
-0.19226038 3.3142524 -1.478081
-0.18801171 3.4492369 -0.8184855
-0.16489986 3.4582121 -0.8203299
-0.15187936 3.4237444 -0.81202978
-0.1333826 3.2641144 -1.4544903
-0.14235169 3.4836042 -0.91271818
-0.12198859 3.2645602 -1.4544903
-0.11526827 3.3855247 -0.97134608
-0.092638105 3.4016054 -0.97575629
-0.079691373 3.3321998 -1.674215
-0.067825198 3.3209586 -1.4788945
-0.011073552 3.3390253 -1.8760835
0.024563372 3.7035213 -0.52050745
0.03386423 3.345232 -1.4894696
0.032702759 3.2304976 -1.1758653
0.078917079 3.324158 -1.8682461
0.077664532 3.2713983 -1.4569308
0.086193576 3.1649642 -1.069831
0.098774694 3.2329137 -1.1772333
0.11077718 3.2704444 -1.4569308
0.12422756 3.324518 -1.8692257
0.1232838 3.2992613 -1.3790433
0.13518143 3.3223455 -1.8682461
0.14739437 3.3357887 -1.8760835
0.15878612 3.330029 -1.8731445
0.15664047 3.2850313 -1.464252
0.18058452 3.3236797 -1.8702054
0.17496629 3.2202754 -1.1738131
0.18882899 3.2649822 -1.7389228
0.18703878 3.2340283 -1.4422883
0.1973632 3.4125445 -0.98016649
0.20357028 3.3188572 -1.8682461
0.20033216 3.2660654 -1.7398617
0.2024646 3.3008308 -1.4723867
0.21479926 3.3216438 -1.8702054
0.22291933 3.2699118 -1.7426785
0.23715691 3.3166265 -1.8682461
0.2340143 3.2726774 -1.7445564
0.24460138 3.2683616 -1.7426785
0.25614583 3.2692482 -1.7436175
0.26784512 3.2718542 -1.7454954
0.28376538 3.3304639 -1.8780428
0.27869442 3.2709479 -1.7454954
0.29419222 3.3225574 -1.8741242
0.28891608 3.2629697 -1.7417396
0.29098523 3.2863381 -1.6571586
0.30648586 3.335454 -1.8819616
0.30038211 3.2690277 -1.7454954
0.31821039 3.3291011 -1.8790226
0.30918843 3.234714 -1.1827056
0.3287327 3.3228221 -1.8760835
0.32389078 3.27388 -1.7492511
0.33868617 3.3113062 -1.8702054
0.33420745 3.267518 -1.7464343
0.33649373 3.2898707 -1.4723867
0.34524041 3.2628191 -1.7445564
0.36159462 3.3123913 -1.8721648
0.35701436 3.2704337 -1.7492511
0.35242561 3.2283986 -1.1820216
0.36763796 3.2621486 -1.7454954
0.39535043 3.5080485 -0.83646911
0.3803432 3.2771986 -1.6571586
0.39713445 3.3206108 -1.8790226
0.41914734 3.3179042 -1.8790226
0.41327345 3.2714074 -1.6562608
0.42581958 3.3707204 -0.88941908
0.43831038 3.4695957 -0.82863003
0.42549238 3.2716429 -1.6571586
0.43742338 3.3633811 -0.88789958
0.44977012 3.4583163 -0.82632446
0.43515822 3.2613561 -1.65267
0.44245139 3.3160157 -1.4894696
0.45036644 3.3753364 -0.8914451
0.46200895 3.4625928 -0.82770783
0.44960389 3.2864561 -1.6661355
0.46076959 3.3680739 -0.8899256
0.47269672 3.4552574 -0.82632446
0.46572846 3.3222511 -1.8849007
0.46124336 3.290257 -1.6688287
0.48550236 3.4633071 -0.82863003
0.47881186 3.3309605 -1.8907787
0.48451057 3.3706048 -0.8914451
0.49323228 3.3482437 -1.9015552
0.5032928 3.3396933 -1.8976364
0.49216059 3.2658236 -1.5632954
0.50311756 3.3385308 -0.88384759
0.51574427 3.343086 -1.9005754
0.52125734 3.3788221 -0.89499062
0.5265553 3.3396351 -1.8995959
0.53185576 3.3732529 -0.89397764
0.538737 3.3447561 -1.9035145
0.52519399 3.2606742 -1.5632954
0.54427052 3.3791111 -0.8960036
0.55184251 3.3479204 -1.9064536
0.54909909 3.3312767 -0.88384759
0.56294256 3.346072 -1.9064536
0.54766017 3.255235 -1.6580564
0.54739362 3.2536509 -1.2883636
0.56624293 3.3656893 -0.89347106
0.56449831 3.28863 -1.6760104
0.56287521 3.2791741 -1.4813349
0.56007051 3.2628348 -1.2927285
0.57609087 3.3561654 -0.8914451
0.58157301 3.3185813 -1.5000448
0.59080929 3.3712854 -0.8960036
0.60402834 3.3807356 -0.89904267
0.61127949 3.2917578 -1.1312934
0.62276703 3.2896039 -1.1312934
0.63654065 3.3024051 -1.1364152
0.69587892 3.4793727 -1.9936448
0.66441095 3.3220341 -1.1447383
0.68105423 3.2915781 -1.1357751
0.7161209 3.2899446 -1.1376958
0.72620952 3.2838516 -1.1364152
0.74182141 3.2997832 -1.1428176
0.74854362 3.2788329 -1.1364152
0.75941187 3.2763329 -1.1364152
0.77054518 3.2698388 -1.1351348
0.78982878 3.3025723 -1.7056345
0.7877118 3.2460938 -1.6778058
0.80459511 3.2658837 -1.6894759
0.80541956 3.2692301 -1.1376958
1.0187241 3.5574007 -0.607952
1.0360841 3.5708814 -0.61087012
1.0360841 3.5708814 -0.61087012
1.4025258 4.2834368 -1.0679506
1.4112182 4.2621346 -1.0638006
1.1748197 3.3194294 -1.8722527
1.1852256 3.313853 -1.8713138
1.2051938 3.3329446 -1.8844591
1.2113632 3.3137908 -1.8760085
1.2266272 3.3213513 -1.8825811
1.2438082 3.3338101 -1.8919705
1.29996 3.4843152 -0.79048032
1.2535695 3.3244908 -1.8891537
1.310735 3.4760947 -0.78964865
1.2799737 3.3257699 -1.8947874
1.4823858 3.8119483 -0.77060306
1.5309384 3.8984826 -0.78911823
1.5706648 3.960984 -0.80281961
1.3980185 3.4899955 -1.9990101
1.3453515 3.2933965 -1.6839436
1.46794 3.5579658 -1.103652
1.3786203 3.2796094 -1.6839436
1.4199982 3.3131049 -1.7061909
1.4173412 3.2768538 -1.6899334
1.4639829 3.3846881 -0.96539456
1.5447065 3.5713189 -0.8270728
1.4581722 3.3408027 -0.95425141
1.5761064 3.6110003 -0.83746839
1.4745052 3.3463161 -0.95729047
1.6076325 3.6484418 -0.84744811
1.4783131 3.3234708 -0.95222545
1.4758817 3.2885911 -1.7061909
1.3980106 3.1150773 -0.97906399
1.4101073 3.1420312 -0.90157515
1.4860326 3.2820325 -1.7053353
1.4043672 3.1016674 -0.97630751
1.4013652 3.095037 -0.88941908
1.4967295 3.2751806 -1.7044796
1.55955 3.4126463 -0.8890366
1.7807459 3.8966722 -0.91065329
1.5090966 3.2734821 -1.7061909
1.8428003 3.9973412 -0.93560266
1.525087 3.2780294 -1.7113248
1.9499894 4.1913171 -0.98259073
1.5326798 3.264504 -1.7070466
2.0144935 4.2907343 -1.0075401
1.5429273 3.2596731 -1.7070466
2.0229404 4.2737751 -1.0050452
1.5589718 3.2640543 -1.7121806
2.0833766 4.3620124 -1.0274997
1.5839092 3.2881813 -1.7275825
1.5810663 3.2822793 -0.95374495
1.6303105 3.3530238 -0.97603106
1.709626 3.51615 -0.92638719
1.633698 3.3318508 -1.6521643
1.6490862 3.3632343 -0.98058963
1.7178488 3.5034721 -0.92454273
1.6152802 3.2668357 -1.7250154
1.6619461 3.3612154 -0.98160261
1.7794874 3.598938 -0.95128769
1.6139597 3.2371042 -1.5108579
1.6653126 3.3401024 -0.97704411
1.7995695 3.5780497 -0.948982
1.6789041 3.3093021 -1.6521643
1.8472688 3.6411672 -0.96742672
1.8930115 3.7008603 -0.98494929
1.7008154 3.2980943 -1.6521643
1.9552239 3.7914243 -1.0107719
1.9944881 3.8346465 -1.0241444
1.7232238 3.2864416 -1.6521643
1.9918288 3.7987108 -1.0163053
1.805364 3.385411 -1.0043952
1.9999872 3.7503676 -1.0070829
1.8184119 3.3828144 -1.0054083
2.0603268 3.8328514 -1.0310611
2.3918004 4.3777795 -1.0603497
1.829409 3.3208134 -2.0159111
1.8178692 3.299866 -1.677382
1.8172661 3.2730441 -1.9905596
1.8217062 3.2810411 -1.6708742
1.822073 3.2562129 -1.983987
1.8316936 3.2467563 -1.9821091
1.832849 3.2237782 -1.9717808
1.8595846 3.243082 -1.9877428
1.8588446 3.21702 -1.9755365
1.8611027 3.2209282 -1.6562316
1.8828298 3.2337298 -1.9896207
1.8906115 3.2470946 -1.5694423
1.9103429 3.2547994 -1.5763799
1.9662014 3.3499696 -1.5167917
1.9030013 3.2177978 -1.9877428
1.9192476 3.2452688 -1.5748382
1.9716102 3.3338091 -1.5124269
1.9142212 3.2111359 -1.9877428
1.9305634 3.2385502 -1.5748382
1.9775112 3.3173058 -1.5080621
1.9384971 3.2274783 -2.001827
1.9403414 3.2305486 -1.5740674
1.9647325 3.2467153 -2.0177889
1.9529555 3.2272539 -1.5756091
1.9705356 3.2307918 -2.0121553
2.1739342 3.5642741 -2.0970328
1.9594032 3.2125397 -1.5717548
1.9849377 3.2302573 -2.0159111
2.0940466 3.4078197 -2.009058
2.0141101 3.2777324 -1.5022422
2.0027087 3.2338185 -2.0224836
2.023577 3.2675147 -1.5007873
2.0270755 3.2477803 -2.035629
2.1026459 3.3688591 -1.9946947
2.0280662 3.2493675 -1.4956949
2.1026213 3.3688197 -1.4453771
2.1943278 3.5157518 -1.0849292
2.0359538 3.2380509 -2.033751
2.0709963 3.2937837 -1.954298
2.0457714 3.253665 -1.5007873
2.1187823 3.3697839 -1.4487972
2.2121527 3.5182836 -1.0879681
2.0675638 3.26425 -1.9408326
2.0555537 3.2452884 -1.5000597
2.1339691 3.3690898 -1.4515336
2.2248442 3.5125628 -1.0884748
2.145714 3.3616219 -1.4515336
2.2370894 3.5047767 -1.0884748
2.0903006 3.249737 -1.9408326
2.0791664 3.2324269 -1.5007873
2.1503189 3.3430459 -1.4467452
2.144798 3.3102825 -1.9812291
2.132436 3.291203 -1.6380475
2.1716132 3.3516688 -1.4535855
2.1489255 3.2926755 -1.9749452
2.1574588 3.3057506 -1.6488395
2.1268737 3.2341659 -2.0581634
2.1515675 3.2717159 -1.966866
2.2024469 3.3490841 -1.6742774
2.127135 3.2345631 -1.5116994
2.3037293 3.5030959 -1.0975918
2.137732 3.2273126 -1.9444233
2.1419654 3.2337036 -1.5146092
2.1767638 3.2614541 -1.969559
2.4829612 3.7202308 -1.9913827
2.1408291 3.207613 -1.5058796
2.2250357 3.3087099 -2.002774
2.1676061 3.22331 -1.5167917
2.1716943 3.2063744 -2.0591023
2.2590477 3.3353465 -2.0234213
2.2944055 3.3875501 -1.7089653
2.2610312 3.3145499 -2.0153418
2.1949122 3.1948118 -2.0609803
2.2295055 3.2451642 -1.9776384
2.3513064 3.422452 -1.9654567
2.2485058 3.2472565 -1.9839222
2.2892437 3.3060896 -1.6796733
2.2155275 3.1996298 -1.5197016
2.3773072 3.4332695 -1.5199375
2.2653949 3.2485788 -1.9893085
2.2946448 3.2673743 -2.0054672
2.3204882 3.2797697 -2.0180349
2.3002689 3.2284334 -1.655777
2.3302517 3.2464764 -2.0072625
2.3265896 3.2413743 -1.666569
2.5452478 3.5460064 -1.1426705
2.3649125 3.2706025 -1.7969626
2.3346467 3.2287462 -1.6642565
2.5678146 3.5512102 -1.1472291
2.2653949 3.2485788 -1.9893085
2.2946448 3.2673743 -2.0054672
2.3204882 3.2797697 -2.0180349
2.3002689 3.2284334 -1.655777
2.3302517 3.2464764 -2.0072625
2.3265896 3.2413743 -1.666569
2.5452478 3.5460064 -1.1426705
2.3649125 3.2706025 -1.7969626
2.3346467 3.2287462 -1.6642565
2.5678146 3.5512102 -1.1472291
2.3491399 3.2262053 -2.0045693
2.5455186 3.4959033 -1.5739766
2.5909648 3.5583172 -1.152294
2.3566561 3.2140729 -2.0018761
2.3712869 3.2340271 -1.6750482
2.5559871 3.4859264 -1.5732927
2.5970314 3.5419037 -1.1497617
2.3704851 3.2105541 -2.0045693
2.3852859 3.2306001 -1.6773608
2.3813748 3.2253029 -1.5655328
2.5630667 3.471384 -1.5705564
2.5949707 3.5145946 -1.1436836
2.4070261 3.2351611 -1.6842984
2.6182301 3.5190296 -1.1482421
2.4179962 3.2286773 -2.0261145
2.4171772 3.2275836 -1.6842984
2.6547875 3.5448575 -1.1593851
2.4335577 3.2259238 -2.029705
2.4317641 3.223546 -1.6866109
2.5827558 3.4237006 -1.6746545
2.6927807 3.5695496 -1.1705282
2.4597471 3.2370801 -1.6981735
2.6059599 3.4294991 -1.6819292
2.4771979 3.2376993 -1.7027986
2.6173193 3.4208381 -1.6819292
2.6190102 3.3983996 -1.675382
2.6262879 3.3833489 -1.672472
2.6099932 3.3623569 -1.2205222
2.6030741 3.3305876 -1.6506476
2.6152575 3.3234005 -1.6513753
2.6612332 3.381825 -1.3428195
2.692508 3.3983202 -1.9303722
2.7346454 3.3794208 -1.3565217
-1.3026751 3.3847508 -1.6147445
-1.2842863 3.3702717 -1.6057963
-1.27187 3.3730242 -1.6049829
-1.25881 3.3740201 -1.6033559
-1.2575028 3.3705165 -1.4047601
-1.2349554 3.3438969 -1.5870864
-1.242447 3.364182 -1.4003953
-1.2282921 3.3619161 -1.5935943
-1.2084377 3.3419161 -1.5822055
-1.2055815 3.3340175 -1.3843907
-1.2577018 3.4781549 -1.2497368
-1.1973495 3.3459048 -1.5822055
-1.1894979 3.3239641 -1.3785709
-1.1806679 3.3378055 -1.7783484
-1.1911702 3.3674963 -1.5903403
-1.2270705 3.4689879 -1.2433344
-1.1536525 3.2961566 -1.7541105
-1.1685293 3.3386619 -1.5748844
-1.1662632 3.3321874 -1.3785709
-1.2099272 3.4569421 -1.2375722
-1.256591 3.5902672 -0.9957847
-1.1555256 3.3369594 -1.2853117
-1.2263173 3.541394 -0.98109609
-1.1386631 3.3238683 -1.5643092
-1.1441376 3.3398492 -1.3785709
-1.1420178 3.3336611 -1.2825755
-1.1470596 3.3483784 -1.1959571
-1.2133136 3.5417802 -0.98008311
-1.12471 3.3209004 -1.5610553
-1.1324731 3.3438225 -1.3785709
-1.1153033 3.2931254 -1.2654746
-1.1347574 3.3505673 -1.1953168
-1.1680498 3.4488685 -0.95323843
-1.1061871 3.3041272 -1.2682106
-1.1242571 3.3581016 -1.1965972
-1.156003 3.452925 -0.95323843
-1.0893173 3.2899358 -1.2613703
-1.1065644 3.342025 -1.1895547
-1.2540083 3.7873325 -0.94529313
-1.0693078 3.2676883 -1.8281225
-1.0693327 3.2677646 -1.6274699
-1.0941919 3.3437316 -1.2805234
-1.0492245 3.2426536 -1.8121604
-1.0523696 3.2523735 -1.6180576
-1.0788984 3.3343616 -1.4638364
-1.0352366 3.2360241 -1.8065268
-1.0355188 3.2369063 -1.6086454
-1.0212741 3.2311988 -1.8018321
-1.0280278 3.2525668 -1.614635
-1.0084107 3.229687 -1.7990152
-1.0118197 3.2406054 -1.6069341
-1.0368102 3.3206434 -1.2661586
-0.99717343 3.2313259 -1.7980762
-1.002133 3.2473974 -1.6086454
-1.0019876 3.2855527 -1.9299659
-0.98799855 3.2396822 -1.8008931
-0.98941362 3.2853835 -1.8243666
-0.97166508 3.2264488 -1.5949548
-0.97944421 3.2522795 -1.5122468
-1.1778908 3.9112287 -0.86823928
-0.96044546 3.2279201 -1.594099
-0.96813339 3.2537582 -1.5114334
-1.1364616 3.8194854 -0.84703237
-0.94815379 3.2277842 -1.5923878
-0.95574057 3.2536118 -1.5098065
-0.98503792 3.3971593 -1.8807031
-0.94443154 3.2571175 -1.6052227
-0.94488549 3.2586832 -1.51062
-0.98106021 3.4258721 -1.8947874
-0.96830237 3.3813217 -1.7666782
-0.92765397 3.239377 -1.5949548
-0.92753565 3.2389641 -1.5000448
-0.96000123 3.3948331 -1.7720644
-0.92379248 3.2667887 -1.6069341
-0.9172861 3.2437804 -1.5008582
-1.0316597 3.6482375 -0.80586576
-0.92200804 3.30672 -1.624903
-0.90342718 3.2400811 -1.4976044
-1.0077718 3.614306 -0.79754931
-0.89324147 3.2451048 -1.7896258
-0.89267838 3.2430589 -1.4976044
-0.99162817 3.6025388 -0.79422271
-0.87363327 3.2155018 -1.8721648
-0.87460512 3.2190788 -1.7736636
-0.96839279 3.5642743 -0.78507465
-0.862854 3.220216 -1.8731445
-0.86016285 3.2101724 -1.767091
-0.86821836 3.240236 -1.4935371
-0.95746315 3.573302 -0.78632206
-0.85131896 3.2198355 -1.7708468
-0.86494178 3.2713592 -1.5065526
-0.86670321 3.2780213 -1.32401
-0.93460792 3.5348487 -0.777174
-1.0685837 4.0415683 -0.78763705
-0.84230071 3.2313318 -1.7755415
-0.90375036 3.4670722 -1.5952212
-0.91782129 3.5210526 -0.7734316
-1.0153039 3.8950264 -0.75838304
-0.82894278 3.2238455 -1.769908
-0.89816386 3.4930537 -1.6057963
-0.89538956 3.5333612 -1.6228793
-0.88233948 3.5309932 -1.6204388
-0.84406579 3.3778274 -0.99835855
-0.81036651 3.2893105 -1.6035115
-0.87280977 3.5427701 -1.6245062
-0.83009958 3.3694079 -0.99505091
-0.79148996 3.2641492 -1.5898207
-0.85120863 3.5104322 -1.6082368
-0.84126228 3.5203435 -1.6114906
-0.76371115 3.2433674 -1.8721648
-0.82413876 3.4999945 -1.6009154
-0.75139558 3.2391715 -1.76803
-0.81872165 3.5294056 -1.6131176
-0.74087095 3.2452176 -1.769908
-0.80314428 3.5179918 -1.6066098
-0.76678914 3.3587463 -0.98788434
-0.72682852 3.2357237 -1.7633353
-0.789657 3.5154259 -1.6041694
-0.89508069 4.047472 -0.58257866
-0.71952683 3.2536337 -1.7717859
-0.76813275 3.4734251 -1.5838326
-0.87758058 4.035089 -0.58035189
-0.72392792 3.3285987 -1.8112215
-0.73093736 3.3608279 -0.98623049
-0.85922009 4.0147376 -0.57701176
-0.74102914 3.462486 -0.75264037
-0.84508657 4.0136881 -0.57645506
-0.70981961 3.3712456 -0.98788434
-0.83147132 4.0185533 -0.57673335
-0.69005042 3.3350573 -1.5163143
-0.69804657 3.3737032 -0.98788434
-0.67476588 3.3195407 -1.5081795
-0.6862666 3.3761191 -0.98788434
-0.65891331 3.2975304 -1.3130978
-0.66213012 3.3136289 -1.2299044
-0.69727635 3.4895182 -0.75638282
-0.66089642 3.365504 -0.98347414
-0.68230712 3.4745345 -0.75264037
-0.64877987 3.3659031 -0.98292285
-0.63761526 3.3680358 -0.98292285
-0.65609366 3.4656434 -0.74972963
-0.62301332 3.3549364 -1.4252942
-0.60357702 3.2502716 -1.2032268
-0.62515342 3.3664608 -0.98182034
-0.64649326 3.4813764 -0.75264037
-0.62677526 3.4386845 -1.4599822
-0.61984605 3.4006686 -0.99119198
-0.63494408 3.4835012 -0.75264037
-0.61796421 3.458735 -0.7468189
-0.57161659 3.2617686 -1.205279
-0.60885412 3.4742539 -0.74972963
-0.58227932 3.3922088 -1.4376277
-0.59904045 3.4898546 -0.75264037
-0.58555704 3.4842074 -0.7509771
-0.54855621 3.3315971 -1.1408969
-0.57495397 3.4919209 -0.75222456
-0.536901 3.3296564 -1.1396165
-0.55971903 3.7141211 -1.9971322
-0.51926833 3.8969202 -0.55251729
-0.49142289 3.8845594 -0.55029047
-0.48076159 3.9098399 -0.55363065
-0.46449974 3.8838813 -0.54973382
-0.38140479 3.1890888 -1.2541722
-0.45185184 3.8933485 -0.55084717
-0.43760854 3.8830168 -0.54917711
-0.42749131 3.9160221 -0.55363065
-0.36517921 3.3452137 -1.1370555
-0.46449974 3.8838813 -0.54973382
-0.38140479 3.1890888 -1.2541722
-0.45185184 3.8933485 -0.55084717
-0.43760854 3.8830168 -0.54917711
-0.42749131 3.9160221 -0.55363065
-0.36517921 3.3452137 -1.1370555
-0.30522719 3.1991503 -1.2548996
-0.29490635 3.2033005 -1.9077468
-0.29396039 3.1930254 -1.801628
-0.32394433 3.5187137 -1.5732574
-0.31211162 3.5179489 -1.572444
-0.30417967 3.4285443 -0.90106863
-0.2723673 3.1966894 -1.8026077
-0.29843453 3.5026324 -1.5651227
-0.26008523 3.1838784 -1.8944843
-0.26149172 3.2010965 -1.8045671
-0.25101036 3.2036843 -1.8055466
-0.25910726 3.3070264 -1.5701406
-0.23981786 3.2044451 -1.9057063
-0.2382635 3.1836758 -1.7937906
-0.24944989 3.3331482 -1.5821198
-0.22710508 3.1760533 -1.8883631
-0.22770539 3.1844485 -1.7937906
-0.24007221 3.3573978 -1.5932435
-0.21730159 3.1957054 -1.8995852
-0.21635228 3.1817446 -1.7918313
-0.2289651 3.3672326 -1.5975218
-0.23289593 3.4250407 -0.81341314
-0.20670369 3.1964083 -1.8995852
-0.20580068 3.1824446 -1.7918313
-0.19428381 3.1765063 -1.887343
-0.1966058 3.2144701 -1.8094654
-0.20957698 3.4265466 -0.81341314
-0.18573466 3.2114806 -1.9077468
-0.18493754 3.1976976 -1.7996687
-0.19978516 3.4544232 -0.81986886
-0.17517826 3.2137964 -1.9087669
-0.17433323 3.1982934 -1.7996687
-0.17800444 3.265645 -1.4561173
-0.18737617 3.4375775 -0.81571871
-0.1639681 3.2145545 -1.8084857
-0.17607033 3.4518158 -0.8189466
-0.15249713 3.2098823 -1.8055466
-0.16328044 3.4368579 -0.81525767
-0.14508814 3.2835965 -1.3728766
-0.12192037 3.2627344 -1.4536768
-0.11579472 3.4185784 -1.8187329
-0.11059154 3.2649662 -1.4544903
-0.10367354 3.3932564 -1.9074333
-0.098425448 3.2214851 -1.4349669
-0.1035664 3.3897498 -0.97244865
-0.092017606 3.4005694 -1.9113519
-0.080741085 3.400856 -1.9113519
-0.076589659 3.2259955 -1.1744972
-0.069568865 3.4063349 -1.914291
-0.065813802 3.2224736 -1.1731291
-0.069169492 3.3867803 -0.97134608
-0.056880232 3.3594859 -1.8878397
-0.054341294 3.2095301 -1.1683408
-0.043902267 3.2665436 -1.4544903
-0.032777619 3.2377474 -1.8192623
-0.033125918 3.2721522 -1.4569308
-0.021897361 3.2169151 -1.807506
-0.022397669 3.2904148 -1.3744183
-0.023367355 3.4328701 -0.81341314
-0.010676551 3.2193167 -1.43334
-0.010676726 3.2193694 -1.171761
-0.011468885 3.4582303 -0.8194077
0.011301784 3.2378936 -1.8192623
0.011402746 3.2668188 -1.4544903
0.01215237 3.4815814 -0.8249411
0.022397997 3.2081935 -1.8026077
0.022370633 3.2042737 -1.1662886
0.038597763 3.7482023 -2.2229841
0.03326939 3.2307677 -1.8153435
0.04388877 3.2236657 -1.8114247
0.055228446 3.228723 -1.8143638
0.066149481 3.2389815 -1.8202418
0.067077562 3.2844245 -1.462625
0.10213852 3.7504506 -2.2250242
0.11457594 3.7500911 -2.2250242
0.1283191 3.7496462 -2.2250242
0.12199502 3.2495735 -1.8270997
0.15325524 3.7504315 -2.2260447
0.17370793 3.6429665 -0.59919745
0.15488291 3.2481718 -1.8270997
0.1917778 3.7469366 -2.2250242
0.20439033 3.7497153 -2.2270646
0.21737941 3.7472618 -2.2260447
0.2295914 3.7430861 -2.224004
0.20044029 3.267828 -1.7408007
0.21234763 3.2837319 -1.4650655
0.22106658 3.2343936 -1.1799694
0.26812401 3.7405233 -2.224004
0.23237514 3.2418008 -1.8261199
0.25760117 3.2878227 -1.4683193
0.25337693 3.2339079 -1.1806536
0.27926525 3.2708991 -1.7454954
0.2872217 3.2374027 -1.8261199
0.30111298 3.2707338 -1.7464343
0.30300537 3.2912896 -1.4715732
0.29737756 3.2301593 -1.1806536
0.35715437 3.7365313 -2.2260447
0.40817294 3.7330329 -2.2270646
0.42035824 3.7299495 -2.2260447
0.36763796 3.2621486 -1.7454954
0.43312076 3.7319524 -2.2280848
0.37309256 3.2147241 -1.1779174
0.47131205 3.7255878 -2.2270646
0.40782782 3.223763 -1.1827056
0.42951328 3.2190495 -1.1820216
0.51035029 3.7256503 -2.2301252
0.44360852 3.2384233 -1.4553038
0.44176686 3.2249789 -1.1847578
0.52222311 3.7205303 -2.2280848
0.45759439 3.2600889 -1.6535678
