# .PCD v0.7 - Point Cloud Data file format
VERSION 0.7
FIELDS x y z
SIZE 4 4 4
TYPE F F F
COUNT 1 1 1
WIDTH 116
HEIGHT 1
VIEWPOINT 0 0 0 1 0 0 0
POINTS 116
DATA ascii
13.778884 -8.7544689 3.075747
13.778884 -8.7544689 3.075747
13.912982 -8.9045677 2.7138977
14.036161 -8.9834051 3.1398094
13.791202 -8.8946371 2.3063767
13.769035 -8.8803406 2.6918492
13.806567 -8.9729433 2.3141704
14.236041 -9.2520599 2.7894459
13.574296 -8.8219891 3.0501959
14.329122 -9.3802862 2.8137639
13.845892 -9.0639486 3.1179614
13.845295 -9.1292896 3.1246271
13.646365 -9.0666227 3.0868559
13.817134 -9.2462749 3.1324034
13.717962 -9.2493992 3.1172209
14.117077 -9.7278137 2.8166821
13.560513 -9.3442965 3.1027792
13.933123 -9.6693535 3.1953552
13.701099 -9.5829248 3.1501777
13.865279 -9.7663889 3.1953552
13.585944 -9.6371946 3.1383283
12.861467 -9.2555227 2.6033313
13.252025 -9.5365801 3.076117
13.235456 -9.7330818 3.0953729
13.348074 -9.8842678 2.7288127
13.079485 -9.7526999 2.6805007
13.476284 -10.048573 3.167212
13.138322 -9.8717031 2.6999555
12.598717 -9.4662619 2.9690993
12.463379 -9.4293985 2.5676649
13.233393 -10.011968 3.1264787
13.454463 -10.249553 2.3770766
13.388112 -10.199008 2.7651279
13.24909 -10.166385 2.7437279
12.513161 -9.6016865 2.9716914
13.101298 -10.122182 2.720058
12.649224 -9.7729044 3.0116842
12.807342 -9.9666538 2.6662343
12.664668 -9.8556261 3.0235338
12.687612 -9.9412079 3.0368648
13.00102 -10.260221 2.721031
12.444549 -9.8210602 2.9868736
13.028386 -10.352113 2.338665
12.169626 -9.6697588 2.5537226
12.27496 -9.7534542 2.9539165
12.998626 -10.398973 2.3395002
12.185266 -9.7482805 2.5637741
12.185763 -9.7486792 2.9402156
12.146382 -9.7903996 2.5631256
12.62891 -10.179333 3.0561206
12.41195 -10.072537 3.0116842
12.785029 -10.445807 2.3202941
13.325217 -10.887159 2.8270578
12.440883 -10.164627 3.0268667
13.129291 -10.803723 2.3896022
12.816239 -10.546123 2.7268674
12.145806 -9.994442 2.9635446
13.028386 -10.352113 2.338665
12.169626 -9.6697588 2.5537226
12.27496 -9.7534542 2.9539165
12.998626 -10.398973 2.3395002
12.185266 -9.7482805 2.5637741
12.185763 -9.7486792 2.9402156
12.146382 -9.7903996 2.5631256
12.62891 -10.179333 3.0561206
12.41195 -10.072537 3.0116842
12.785029 -10.445807 2.3202941
13.325217 -10.887159 2.8270578
12.440883 -10.164627 3.0268667
13.129291 -10.803723 2.3896022
12.816239 -10.546123 2.7268674
12.145806 -9.994442 2.9635446
13.142198 -10.887634 2.3985095
12.154975 -10.069771 2.973913
13.032639 -10.873809 2.3854272
13.009344 -10.854373 2.7836094
12.145406 -10.133545 2.9802084
12.825143 -10.773021 2.3539741
12.903766 -10.839064 2.7686944
11.96726 -10.052407 2.944659
13.270203 -11.301816 2.4497252
12.897301 -10.984227 2.7832854
11.946442 -10.17441 2.9565089
13.227663 -11.34549 2.4491684
12.66264 -10.860864 2.7408094
11.889968 -10.198135 2.9513245
12.68738 -10.959184 2.7544279
11.936102 -10.31024 2.9716914
12.612248 -10.967525 2.7459977
12.096132 -10.518715 3.020201
12.007591 -10.515553 3.0072405
12.056179 -10.62895 2.640619
11.959386 -10.543615 3.0039079
12.850402 -11.405109 2.8228426
12.168838 -10.880196 2.2941296
12.824697 -11.466601 2.8264091
12.109658 -10.827284 3.0605643
12.69859 -11.429849 2.8069549
12.871297 -11.585299 3.2627506
12.865364 -11.657418 2.8523488
11.980783 -10.855891 3.0461226
12.566557 -11.466802 2.7949581
11.941362 -10.89632 3.045752
12.519741 -11.500401 2.7930124
12.582563 -11.558107 3.2190547
12.701179 -11.749073 2.8426213
12.581095 -11.637991 3.2290528
12.836267 -11.957452 2.882179
12.764742 -11.890824 3.2868202
12.707288 -11.916255 2.8620758
12.719506 -11.927712 3.2853391
12.717932 -12.005744 2.8734243
12.653728 -12.02474 2.8679121
12.615899 -11.988791 3.2790439
12.668021 -12.126992 2.881206
12.627018 -12.163992 2.8805578
