# .PCD v0.7 - Point Cloud Data file format
VERSION 0.7
FIELDS x y z
SIZE 4 4 4
TYPE F F F
COUNT 1 1 1
WIDTH 140
HEIGHT 1
VIEWPOINT 0 0 0 1 0 0 0
POINTS 140
DATA ascii
-6.9814186 -11.352571 -0.93194652
-6.9861817 -11.267562 -0.92706358
-6.9907422 -11.191875 -0.92273861
-6.9906282 -11.109529 -0.91785568
-6.9962435 -11.032828 -0.91353077
-6.9962745 -10.9524 -0.90878737
-6.9955859 -10.867517 -0.90376484
-6.9979372 -10.792365 -0.89943999
-7.0942626 -10.85771 -0.60483927
-7.1148534 -10.81076 -0.60353494
-7.1812739 -10.747538 -0.60278958
-7.0248408 -10.442251 -0.88004762
-7.0299044 -10.371424 -0.87614131
-6.8162751 -9.98106 -0.84516943
-6.9435406 -10.020274 -1.4256337
-6.8590565 -9.8983545 -0.84210014
-6.9574051 -9.9695005 -1.4216846
-6.8941269 -9.8788261 -0.84237915
-6.9430356 -9.8752775 -1.4116956
-6.9228311 -9.8465405 -0.84168166
-6.9631186 -9.8343658 -1.4091403
-6.9462223 -9.8105021 -0.8405655
-6.9765401 -9.7843599 -1.9743037
-6.9703202 -9.7756367 -1.4040297
-6.979876 -9.7890387 -0.84070504
-7.1041508 -9.9633293 -0.57064706
-7.0089006 -9.7539177 -1.9733311
-6.9771233 -9.7096949 -1.3982221
-6.9722176 -9.7028675 -1.1147033
-7.0506349 -9.8119965 -0.84489042
-7.1242986 -9.9145107 -0.56934267
-7.0365796 -9.724225 -1.9720341
-6.9650321 -9.62535 -1.3893948
-6.9669986 -9.628068 -1.1087582
-7.051352 -9.6769142 -1.9671705
-7.0518942 -9.6776581 -1.4003129
-7.0368309 -9.6569862 -0.83554304
-7.0874233 -9.6554222 -1.967819
-6.9789391 -9.5076303 -1.6575518
-7.0926857 -9.662591 -1.4017067
-7.0480666 -9.6018047 -0.8328923
-7.059576 -9.5509253 -1.9512826
-7.0092525 -9.4828424 -1.6572734
-7.0975313 -9.6022758 -1.3963637
-7.0739393 -9.5703573 -0.83219475
-7.0044622 -9.4074841 -1.6483663
-6.9589896 -9.3464117 -1.3626801
-6.9861593 -9.3148451 -1.6363975
-6.9593916 -9.2791548 -1.3564079
-7.1393833 -9.5191431 -0.83205521
-6.9839058 -9.2477903 -1.9039434
-6.9823976 -9.2457933 -1.6283255
-6.9781537 -9.2401743 -1.354085
-7.1673045 -9.4906397 -0.83163673
-6.9763074 -9.1743088 -1.8935677
-6.9926395 -9.1957865 -1.6235934
-6.9738874 -9.1711264 -1.3473482
-7.2301364 -9.50811 -0.83526403
-6.9842868 -9.1185675 -1.8870829
-7.0054264 -9.1461668 -1.61914
-7.0155191 -9.1593447 -1.3492066
-7.2693453 -9.490736 -0.83596158
-6.9931688 -9.0644436 -1.8809223
-6.9901276 -9.0605021 -1.6082845
-7.0462351 -9.1332273 -1.3489742
-7.2926803 -9.4526663 -0.83484548
-7.0268221 -9.0458784 -1.8818952
-7.3398976 -9.4489126 -0.83665913
-7.0741653 -9.041502 -1.8861103
-7.3740659 -9.4248047 -0.83679867
-7.1187649 -9.0365973 -1.8900012
-7.420095 -9.4191074 -0.83847278
-7.4636884 -9.4100809 -0.83986795
-7.4022155 -9.2626476 -1.9480402
-7.511826 -9.3998079 -0.84140259
-7.4180446 -9.2195978 -1.9441494
-7.5367026 -9.3670731 -0.84070504
-7.1826711 -8.8635302 -1.0643559
-7.5794048 -9.3531065 -0.84182113
-7.4806285 -9.168891 -1.9441494
-7.0413866 -8.630518 -1.5654191
-7.2132816 -8.8412075 -1.0645417
-7.6154227 -9.3341055 -0.84237915
-7.0687103 -8.6055899 -1.5651407
-7.2476158 -8.8233929 -1.0652848
-7.6425347 -9.3041754 -0.84196067
-7.0951538 -8.5735216 -1.5640274
-7.2875242 -8.805975 -1.0663995
-7.6651373 -9.2622681 -0.84070504
-7.1248136 -8.5514669 -1.5643058
-7.3217859 -8.7878809 -1.0671427
-7.7021961 -9.244463 -0.84140259
-7.1531305 -8.5277939 -1.5643058
-7.3432069 -8.7543983 -1.066028
-7.7443476 -9.2326298 -0.84265822
-7.3904285 -8.7484865 -1.0684432
-7.7894053 -9.2207794 -0.84405333
-7.4206872 -8.7254496 -1.0686289
-7.8380327 -9.216176 -0.84600651
-7.8792429 -9.1993656 -0.84698308
-7.9318547 -9.1988726 -0.8493548
-7.3446879 -8.4580383 -1.5743262
-7.9835372 -9.1937275 -0.85144752
-7.3739991 -8.4351254 -1.5746045
-8.0336781 -9.1897335 -0.85354024
-8.0825605 -9.1840124 -0.85549343
-8.1357441 -9.1796303 -0.85772562
-8.1823521 -9.1675491 -0.85926026
-8.2313757 -9.1611414 -0.86121345
-8.2991819 -9.1752262 -0.86511976
-8.3486252 -9.1653748 -0.86693347
-7.8078542 -8.5118256 -1.6233152
-7.7251391 -8.4216528 -1.33643
-8.4210281 -9.1802845 -0.87111884
-7.8521614 -8.5033474 -1.6266553
-7.7691956 -8.4135008 -1.3392177
-8.4771414 -9.1801577 -0.87376964
-7.9384403 -8.5368013 -1.6383458
-7.8215132 -8.4110603 -1.3431667
-8.5471764 -9.1914206 -0.87767595
-7.9612932 -8.5046453 -1.6372325
-7.853436 -8.3894272 -1.3438637
-8.0047722 -8.5510921 -1.0927808
-8.6294222 -9.2183743 -0.88297749
-7.9976015 -8.4868469 -1.6389027
-7.9016485 -8.3850231 -1.3473482
-8.7119389 -9.2448826 -0.8882789
-7.9569435 -8.3819408 -1.3515296
-8.0648632 -8.4393988 -1.6405725
-8.0722094 -8.3911982 -1.6363975
-8.1055031 -8.3700752 -1.6375109
-8.1595602 -8.3672523 -1.6425211
-8.4190063 -8.5732307 -1.12102
-8.2618599 -8.357584 -1.3742951
-8.4781895 -8.5764198 -1.1251072
-8.3344288 -8.3723373 -1.3814965
-8.5502234 -8.5891123 -1.1306808
-8.4085484 -8.3909569 -1.3891625
-8.4927578 -8.4189663 -1.3984545
-8.5787754 -8.4421234 -1.4075143
