# .PCD v0.7 - Point Cloud Data file format
VERSION 0.7
FIELDS x y z
SIZE 4 4 4
TYPE F F F
COUNT 1 1 1
WIDTH 84
HEIGHT 1
VIEWPOINT 0 0 0 1 0 0 0
POINTS 84
DATA ascii
-0.64674753 27.042978 -0.62803769
-0.55218846 27.037075 -0.62785202
-0.46232745 27.026764 -0.62757355
-0.36819416 27.044207 -0.62794489
-0.27839988 27.035282 -0.62771279
-0.18404676 27.038088 -0.62775922
-0.089750342 27.062559 -0.62831628
3.229103e-07 27.078703 -0.62868762
0.089844167 27.094551 -0.62905902
0.5463776 26.983198 -0.62659872
0.64225298 27.053085 -0.62826985
1.016821 27.211672 -0.63221568
1.1079544 27.230127 -0.63272631
1.2033587 27.234081 -0.63291204
1.2983021 27.227718 -0.63286555
1.387778 27.207289 -0.63249421
1.4792894 27.226498 -0.63305128
1.5745567 27.225159 -0.63314414
1.6684732 27.201536 -0.63272631
1.7598233 27.21381 -0.63314414
1.8559018 27.223459 -0.63351548
1.9460328 27.215162 -0.63346905
2.0359669 27.204573 -0.63337624
2.1312227 27.201284 -0.63346905
2.2279618 27.215601 -0.63397968
2.6680951 26.96904 -0.62919831
2.7626064 27.009769 -0.63035882
2.8812838 27.230612 -0.63574374
2.975672 27.258675 -0.63662571
3.0717072 27.256069 -0.63681144
3.1625302 27.249704 -0.63690424
3.2583499 27.244453 -0.63704354
3.3508685 27.251362 -0.6374613
3.4417143 27.244066 -0.63755417
3.5431004 27.243164 -0.6378327
3.8211594 27.258053 -0.63903964
3.9179983 27.25642 -0.63931817
4.3011279 27.279564 -0.64117503
4.3842616 27.219748 -0.64010733
-1.2849281 27.046198 -0.62864125
-1.1950614 27.046316 -0.62854838
-1.1001629 27.038336 -0.62826985
-1.0111589 27.059818 -0.62868762
-0.9166891 27.063183 -0.62868762
-0.82663953 27.056084 -0.62845558
-0.7328999 27.084785 -0.62905902
-0.27381596 27.047325 -0.62799132
-0.18363845 26.978106 -0.62636656
-0.089511633 26.99058 -0.62664509
0.28035644 27.225222 -0.63212281
0.37078065 27.234137 -0.63235497
0.46585879 27.234678 -0.63240141
0.5561772 27.232983 -0.63240141
0.6512419 27.230877 -0.63240141
0.7415337 27.228567 -0.63240141
0.83195245 27.229954 -0.63249421
0.93160683 27.222727 -0.63240141
1.0220201 27.223484 -0.63249421
1.11238 27.221941 -0.63254064
1.2033587 27.234081 -0.63291204
1.2980164 27.221729 -0.63272631
1.3934461 27.225018 -0.63291204
1.4845979 27.236219 -0.63328338
1.578163 27.204922 -0.63267988
1.6704317 27.233467 -0.63346905
1.7604686 27.223787 -0.63337624
1.8580753 27.185232 -0.63263345
1.9347712 26.991453 -0.62826985
2.0242748 26.98489 -0.62826985
2.1251316 27.123543 -0.63165861
2.2304089 27.245495 -0.63467604
2.3290789 27.279377 -0.63565087
2.6978192 27.269491 -0.63620794
2.7956476 27.285767 -0.63681144
2.8857019 27.272367 -0.63671857
3.1641438 27.263607 -0.6372292
3.2647691 27.25778 -0.63736844
3.3544025 27.240852 -0.6372292
3.447988 27.255365 -0.6378327
3.541178 27.265594 -0.63834333
3.6363385 27.253065 -0.63834333
3.7265573 27.20455 -0.63750774
3.7981236 27.05938 -0.63439751
3.8828785 26.978668 -0.63281918
