# .PCD v0.7 - Point Cloud Data file format
VERSION 0.7
FIELDS x y z
SIZE 4 4 4
TYPE F F F
COUNT 1 1 1
WIDTH 147
HEIGHT 1
VIEWPOINT 0 0 0 1 0 0 0
POINTS 147
DATA ascii
10.54754 -14.662248 -1.2630107
11.42165 -15.877357 0.91210365
10.525281 -14.739567 -1.2664984
11.332489 -15.869979 0.90940177
10.516455 -14.836442 -1.2716606
11.244675 -15.863803 0.90679312
10.52117 -14.947916 -1.2782177
11.177057 -15.879766 0.90558189
10.511545 -15.03996 -1.2831006
10.898615 -15.593781 0.44170144
10.892007 -15.584326 0.88666898
10.881855 -15.5698 1.3283029
10.855557 -15.532173 1.7679195
10.865319 -15.546141 2.2180138
10.863609 -15.543694 3.1156323
10.507883 -15.14705 -1.2890997
10.828161 -15.608729 -0.44105154
10.821959 -15.599789 0
10.803087 -15.572586 0.44003028
10.815905 -15.591061 0.88489884
10.789924 -15.553611 1.7660617
10.790606 -15.554595 2.2138324
10.774214 -15.530965 2.6565363
10.499073 -15.247721 -1.2945406
10.746397 -15.606907 -0.43993744
10.739084 -15.596287 0
10.733924 -15.588792 0.43942681
10.722895 -15.572775 0.88173121
10.723107 -15.573084 1.3221642
10.71072 -15.555094 1.7619743
10.704702 -15.546354 2.2073281
10.699718 -15.539116 2.651526
10.499123 -15.356569 -1.3008187
10.670884 -15.607797 -0.43896258
10.663601 -15.597143 0
10.664113 -15.597893 0.43868408
10.666683 -15.601651 0.8813585
10.666903 -15.601973 1.3216062
10.645592 -15.570802 1.7597449
10.623939 -15.539131 2.2012882
10.625773 -15.541814 2.6459591
10.491386 -15.460813 -1.3065388
10.597251 -15.616822 -0.43817341
10.588879 -15.604484 0
10.565457 -15.569968 1.7554719
10.549555 -15.546534 2.1971066
10.548105 -15.544397 2.6401141
10.489109 -15.568321 -1.3126773
10.527531 -15.625348 -0.43743068
10.513604 -15.604678 0
10.526006 -15.623084 1.7575155
10.53568 -15.637444 2.2050049
10.54187 -15.646631 2.651526
10.491857 -15.684388 -1.7604882
10.49289 -15.685934 -1.319653
10.506785 -15.706705 -0.43873048
10.531714 -15.743972 1.7671763
10.537888 -15.753201 2.2163877
10.54829 -15.768751 2.6662786
10.505533 -15.830075 -0.441098
10.526793 -15.862111 1.776094
10.529506 -15.866199 2.2268412
10.544085 -15.888166 2.6799173
10.511285 -15.953316 -0.44355831
10.527821 -15.978412 1.7851974
10.532573 -15.985625 2.2386887
10.542555 -16.000774 2.6929996
10.514147 -16.07342 -0.44592586
10.529283 -16.09656 1.7944865
10.534966 -16.105247 2.2505362
10.543647 -16.118517 2.706917
10.490715 -16.160458 -1.3472766
10.494038 -16.165575 -0.8987807
10.504788 -16.182137 -0.44792193
10.525075 -16.213388 1.8034042
10.527356 -16.216902 2.2609897
10.541237 -16.238285 2.7208343
10.479218 -16.260561 -1.3527175
10.494487 -16.284252 -0.90343904
10.508476 -16.30596 -0.45038229
10.524111 -16.330221 1.8125076
10.528402 -16.33688 2.2728369
10.542048 -16.358055 2.7350299
10.483665 -16.392845 -1.3606697
10.488169 -16.399889 -0.9078179
10.50751 -16.430134 -0.45279622
10.522833 -16.454092 1.8221684
10.525893 -16.458878 2.2846842
10.533969 -16.471504 2.747834
10.476624 -16.508514 -1.3672268
10.486524 -16.524115 -0.91266257
10.50152 -16.547745 -0.45502445
10.520534 -16.577705 2.2960672
10.530531 -16.593458 2.7620296
10.479247 -16.634323 -1.3747605
10.488109 -16.64839 -0.91760045
10.499875 -16.667067 -0.45734552
10.517384 -16.69486 2.3074498
10.535619 -16.723804 2.7778952
10.486442 -16.768787 -1.3829918
10.490044 -16.774548 -0.92263144
10.499675 -16.789948 -0.45975944
10.506201 -16.800383 2.3172066
10.46971 -16.866188 -1.3881539
10.439631 -16.817728 -0.92309731
10.55492 -17.003456 1.867128
10.547865 -16.99209 2.3388107
10.511169 -16.932976 2.8009982
10.374777 -16.850775 -0.92281777
10.407363 -16.903702 -0.46087357
10.487309 -17.03355 1.866199
10.523006 -17.09153 2.3471735
10.507184 -17.065832 2.8165855
10.500347 -17.182093 -0.46751186
10.487877 -17.161688 1.8764173
10.518063 -17.211082 2.3587885
10.501139 -17.183388 2.8302243
10.486864 -17.28862 -0.46946159
10.486678 -17.288315 1.8864496
10.530986 -17.361361 2.3745849
10.521133 -17.345118 2.8511002
10.492386 -17.427792 -0.47229332
10.493999 -17.430473 1.898154
10.520489 -17.47447 2.3852708
10.515658 -17.466448 2.8652961
10.487513 -17.558107 -0.95374918
10.496081 -17.572454 -0.47521785
10.489255 -17.561026 1.908372
10.526658 -17.623646 2.4006028
10.513529 -17.601665 2.8814399
10.488286 -17.699453 -0.95943236
10.493797 -17.708754 -0.47791028
10.492864 -17.707176 1.9202622
10.520773 -17.754276 2.4133794
10.501497 -17.721746 2.8950789
10.488277 -17.834017 -0.96483606
10.494819 -17.84514 -0.48064917
10.4886 -17.834566 1.9302945
10.516219 -17.881529 2.4259236
10.49187 -17.840126 2.9087181
10.483345 -17.96888 -0.97014648
10.485866 -17.973198 -0.48310953
10.488498 -17.977711 1.9418132
10.508793 -18.012497 2.4387002
10.502389 -18.00152 2.9290373
10.484762 -18.109011 -0.97582978
10.494331 -18.125538 -0.4862662
