# .PCD v0.7 - Point Cloud Data file format
VERSION 0.7
FIELDS x y z
SIZE 4 4 4
TYPE F F F
COUNT 1 1 1
WIDTH 93
HEIGHT 1
VIEWPOINT 0 0 0 1 0 0 0
POINTS 93
DATA ascii
-0.64727342 27.064966 0.62854838
-0.55288249 27.071058 0.62864125
-0.46260104 27.042757 0.62794489
-0.36862966 27.076193 0.62868762
-0.27879107 27.073271 0.62859476
-0.1842645 27.070078 0.62850195
-0.089770243 27.06856 0.62845558
3.2286263e-07 27.074705 0.62859476
0.089817651 27.086554 0.62887335
0.17962039 27.082109 0.62878048
0.2743704 27.103308 0.62929112
0.36903858 27.106184 0.62938398
0.45817381 27.060829 0.62836266
0.5463776 26.983198 0.62659872
0.64277506 27.075075 0.62878048
1.0173436 27.225658 0.63254064
1.1087672 27.250103 0.63319051
1.389204 27.235245 0.63314414
1.4801571 27.242468 0.63342261
1.5769809 27.267078 0.63411897
1.6722678 27.263401 0.63416535
1.7616298 27.241745 0.63379401
1.8597096 27.279314 0.63481528
1.9493128 27.261034 0.63453674
2.0411897 27.274359 0.635001
2.1365325 27.269058 0.63504738
2.2325294 27.271399 0.63527948
2.3221111 27.253881 0.63504738
2.4142339 27.265951 0.63551164
2.5053768 27.265757 0.63569731
2.5912097 27.109104 0.63226211
2.6698666 26.986946 0.62961608
2.7621994 27.005791 0.63026595
2.8819149 27.236576 0.63588297
2.9778419 27.278551 0.63708997
3.0766335 27.29978 0.6378327
3.1671402 27.289427 0.6378327
3.2628613 27.282175 0.63792551
3.3540409 27.277161 0.6380648
3.4509869 27.317467 0.6392718
3.5451634 27.259027 0.6382041
3.8242128 27.279833 0.63955027
3.9225507 27.28809 0.64006096
4.0172038 27.270271 0.6399681
4.1055222 27.242962 0.63964313
4.2118669 27.301582 0.64136076
4.3017511 27.283516 0.6412679
4.3934817 27.276993 0.64145356
4.4752111 27.15023 0.63885397
-1.3900311 27.251219 0.63351548
-1.2856871 27.062176 0.62901258
-1.1966501 27.082272 0.62938398
-1.1008132 27.054317 0.62864125
-1.0120549 27.083796 0.62924469
-0.91743374 27.085165 0.62919831
-0.82694477 27.066072 0.62868762
-0.73273766 27.078789 0.62891972
-0.64308494 27.087067 0.62905902
-0.55284166 27.069059 0.62859476
-0.45844394 27.076824 0.62873405
-0.36403862 27.086256 0.62891972
-0.27454463 27.119303 0.62966251
-0.1838426 27.008097 0.62706286
0.19038537 27.269987 0.63314414
0.28066528 27.255213 0.63281918
0.8328073 27.257933 0.63314414
0.93242735 27.246704 0.63295841
1.0220951 27.225481 0.63254064
1.1136861 27.253904 0.63328338
1.2041531 27.25206 0.63332981
1.3003972 27.271656 0.63388687
1.3962055 27.278933 0.63416535
1.4860127 27.262173 0.63388687
1.5818684 27.268797 0.63416535
1.6731247 27.27737 0.63449031
1.7635652 27.271673 0.63449031
1.8602569 27.217152 0.63337624
1.9396317 27.059261 0.62984818
2.0251722 26.996853 0.62854838
2.1231015 27.097631 0.63105518
2.2335083 27.283356 0.63555807
2.3292489 27.281366 0.63569731
2.4207592 27.285446 0.63597584
2.5119555 27.285233 0.63616151
2.6109958 27.316107 0.63708997
2.7005751 27.297348 0.63685787
2.7954438 27.283777 0.636765
2.8882265 27.296228 0.63727564
2.9784734 27.240265 0.63620794
3.1671402 27.289427 0.6378327
3.2685735 27.289545 0.63811123
3.3619778 27.302372 0.6386683
3.8100746 27.144522 0.63639361
