# .PCD v0.7 - Point Cloud Data file format
VERSION 0.7
FIELDS x y z
SIZE 4 4 4
TYPE F F F
COUNT 1 1 1
WIDTH 65
HEIGHT 1
VIEWPOINT 0 0 0 1 0 0 0
POINTS 65
DATA ascii
-25.757847 2.167475 -1.8075297
-25.636835 2.4233916 -1.8006936
-25.644545 2.5099487 -1.8018098
-25.643566 2.6002557 -1.8023678
-25.644724 2.6863186 -1.8030653
-25.635191 2.7758136 -1.8030653
-25.617914 2.8599234 -1.8025074
-25.619667 2.9506993 -1.8033444
-25.593889 3.0337632 -1.8022282
-25.615377 3.1224825 -1.8044605
-25.633453 3.2200713 -1.8065531
-25.660231 3.3099074 -1.8092039
-25.633291 3.3928885 -1.8080878
-25.63376 3.4794841 -1.8089249
-25.609604 3.5672908 -1.8080878
-25.58317 3.6546888 -1.8071113
-25.590649 3.742393 -1.8085063
-25.573484 3.8311017 -1.8082273
-25.570501 3.9173973 -1.8089249
-25.618473 4.0117402 -1.8132498
-25.591776 4.1037207 -1.8124126
-25.562277 4.1859856 -1.8112966
-25.590649 3.742393 -1.8085063
-25.573484 3.8311017 -1.8082273
-25.570501 3.9173973 -1.8089249
-25.618473 4.0117402 -1.8132498
-25.591776 4.1037207 -1.8124126
-25.562277 4.1859856 -1.8112966
-25.534481 4.2684221 -1.81032
-25.501726 4.3545127 -1.8090644
-25.504837 4.4421253 -1.81032
-25.526499 4.5377684 -1.8129708
-25.525053 4.624877 -1.8139473
-25.597036 4.7302699 -1.8202255
-25.594936 4.8177047 -1.821202
-25.604292 4.9074373 -1.8230157
-25.584175 5.0008664 -1.8228762
-25.547884 5.0817881 -1.8214811
-25.501556 5.1605449 -1.8193883
-25.459938 5.2447009 -1.8177141
-25.459984 5.3327827 -1.8189698
-25.419748 5.4170485 -1.8174351
-25.287678 5.6570978 -1.8119942
-25.222084 5.7303166 -1.8086458
-25.362259 5.8600011 -1.8202255
-25.342686 5.9440742 -1.8202255
-25.344185 6.0331635 -1.8217601
-25.315216 6.1197143 -1.821202
-25.298658 6.2045803 -1.8214811
-25.327181 6.3053837 -1.8251084
-25.310001 6.3903146 -1.8253874
-25.291405 6.4796152 -1.8256664
-25.279434 6.5659575 -1.826364
-25.311544 6.6639752 -1.8302703
-25.285023 6.7561808 -1.8301309
-25.168468 6.9042015 -1.8249688
-25.12307 6.9861345 -1.8234342
-25.076721 7.0629177 -1.8217601
-25.036568 7.1460223 -1.8206439
-24.991648 7.2229147 -1.8191093
-24.962454 7.3089876 -1.8188303
-24.928514 7.3888922 -1.8181328
-24.932541 7.4801183 -1.8202255
-24.908777 7.5726051 -1.8205044
-24.891153 7.6575117 -1.8210624
