# .PCD v0.7 - Point Cloud Data file format
VERSION 0.7
FIELDS x y z
SIZE 4 4 4
TYPE F F F
COUNT 1 1 1
WIDTH 213
HEIGHT 1
VIEWPOINT 0 0 0 1 0 0 0
POINTS 213
DATA ascii
-3.5032785 -12.547337 -1.5234326
-3.4637873 -12.248924 -1.4885875
-3.4831502 -12.317397 -1.1942189
-3.1489904 -11.135714 -2.1803513
-3.420362 -11.943957 -1.1591057
-3.4916601 -12.192931 -0.8868838
-3.1799476 -11.104426 -2.1762779
-3.3958745 -11.703921 -2.0021884
-3.2143102 -11.078157 -2.1733155
-3.4177845 -11.627621 -1.9911643
-3.3834858 -11.510934 -1.1193479
-3.4309974 -11.531101 -1.9765735
-3.3727994 -11.335505 -1.1033704
-3.291883 -11.063557 -2.1747966
-3.3747125 -11.205858 -1.6447479
-3.3741932 -11.204134 -1.0916661
-3.3274186 -11.048817 -2.1740561
-3.3936932 -11.128052 -1.911401
-3.3849216 -11.099289 -1.6308305
-3.3799856 -11.083104 -1.3550141
-3.3702972 -11.051335 -1.0779181
-3.4599116 -11.345184 -0.82940447
-3.3608065 -11.020215 -2.1707234
-3.420871 -11.078423 -1.9049163
-3.4178019 -11.068483 -1.6280471
-3.3594577 -10.879537 -1.3315517
-3.3929899 -10.98813 -1.072902
-3.4588764 -11.201503 -0.81977808
-3.4021533 -11.017806 -2.1725748
-3.456413 -11.063251 -1.9042677
-3.3558283 -10.7413 -1.3159876
-3.456141 -11.06238 -0.81043077
-3.4392576 -11.008339 -2.1729453
-3.5027452 -11.07558 -1.9084828
-3.3969116 -10.740937 -1.5832334
-3.4478085 -10.901872 -0.79954875
-3.467587 -10.964411 -2.1666501
-3.5442648 -11.07894 -1.9110767
-3.3800104 -10.565501 -1.5590172
-3.5069218 -10.962211 -2.1685016
-3.5809846 -11.067126 -1.9110767
-3.5396245 -10.939301 -2.1662798
-3.6275773 -11.078942 -1.9152919
-3.3620403 -10.267968 -1.2634873
-3.456172 -10.555455 -0.77666861
-3.5771759 -10.925012 -2.1659095
-3.6091084 -10.893801 -2.1622062
-3.3359079 -9.9526577 -1.475235
-3.6396177 -10.858773 -2.1577625
-3.3326628 -9.8346224 -1.4593692
-3.3496494 -9.8847494 -1.2205116
-3.6680377 -10.824307 -2.1533189
-3.3254614 -9.7073517 -1.4421117
-3.327044 -9.7119713 -1.2005336
-3.4969385 -10.20791 -0.50319421
-3.6969049 -10.791632 -2.1492457
-3.3214467 -9.5809498 -1.4251328
-3.3222775 -9.5833464 -1.186131
-3.3545878 -9.676548 -0.95548654
-3.7267771 -10.750155 -2.1436913
-3.3271065 -9.4954119 -1.1766067
-3.3550506 -9.5751629 -0.94656891
-3.48752 -9.9532251 -0.49182788
-3.3657169 -9.5044909 -1.6565475
-3.3320527 -9.4094257 -1.1673145
-3.3555429 -9.4757605 -0.93783706
-3.303154 -9.2304287 -1.3778138
-3.3210709 -9.2804966 -1.1526797
-3.3594375 -9.3877096 -0.93021995
-3.3155994 -9.1642399 -1.1396707
-3.3447623 -9.2448454 -0.91721505
-3.3100388 -9.050004 -1.1268941
-3.3482828 -9.1545668 -0.90941215
-3.3111148 -8.9607162 -1.1171374
-3.353085 -9.0742998 -0.90253812
-3.3261559 -8.9056854 -1.5618693
-3.3138764 -8.8728075 -1.1076131
-3.3652306 -9.0103064 -0.89733618
-3.3145692 -8.7856627 -1.542739
-3.3110273 -8.7762747 -1.0969273
-3.3669753 -8.924571 -0.88990486
-3.2744324 -8.592886 -1.2923615
-3.3089895 -8.6835718 -1.086706
-3.3568428 -8.8091497 -0.87950093
-3.2759387 -8.5074749 -1.2812277
-3.3754058 -8.7657871 -0.87634254
-3.3142333 -8.518137 -1.2845678
-3.3821557 -8.692708 -0.87021166
-3.2800524 -8.4302864 -1.9227674
-3.2606535 -8.2988825 -1.4649211
-3.3352199 -8.4886646 -1.2817843
-3.3774655 -8.5961866 -0.86166561
-3.3691947 -8.4922867 -1.2840111
-3.3780482 -8.5146027 -0.85460591
-3.3995535 -8.4823122 -1.2842895
-3.3833013 -8.441761 -0.84847504
-3.432121 -8.4820089 -1.2859596
-3.407542 -8.4212646 -0.8475461
-3.4677012 -8.484643 -1.2881863
-3.424109 -8.3779831 -0.84438771
-3.2506123 -7.9534774 -2.0358386
-3.2062666 -7.8449745 -1.5967518
-3.4980538 -8.4743176 -1.2884647
-3.452574 -8.3641386 -0.84420198
-3.263505 -7.9061036 -2.0266161
-3.2268827 -7.8173833 -1.593419
-3.4712894 -8.3310404 -1.2684237
-3.4787591 -8.3489676 -0.84383041
-3.2799733 -7.8718848 -2.0206218
-3.2527876 -7.8066397 -1.593419
-3.2808406 -7.8010001 -1.1893734
-3.3337848 -7.9268875 -1.0056328
-3.5002503 -8.3227005 -0.84234416
-3.3045506 -7.8573761 -2.0196993
-3.2771342 -7.7921872 -1.5926784
-3.3049536 -7.782208 -1.18826
-3.3334804 -7.8493805 -0.99726993
-3.5261664 -8.3031006 -0.84160101
-3.3540184 -7.8977418 -2.0330718
-3.3020089 -7.7752743 -1.5915675
-3.3094633 -7.7178373 -1.1801881
-3.5559132 -8.2925711 -0.8417868
-3.3738968 -7.8680992 -2.0284605
-3.313014 -7.6559272 -1.1723944
-3.411562 -7.8836584 -2.0353773
-3.3288729 -7.6231179 -1.1690542
-3.44859 -7.8972702 -2.0418329
-3.3458765 -7.589704 -1.165714
-3.3187144 -7.4574585 -1.341061
-3.3594644 -7.5490279 -1.1612605
-3.3369594 -7.4320087 -1.3384671
-3.3698773 -7.5053234 -1.1562502
-3.3579929 -7.4095302 -1.3365216
-3.3870618 -7.4736719 -1.1531883
-3.313014 -7.6559272 -1.1723944
-3.411562 -7.8836584 -2.0353773
-3.3288729 -7.6231179 -1.1690542
-3.44859 -7.8972702 -2.0418329
-3.3458765 -7.589704 -1.165714
-3.3187144 -7.4574585 -1.341061
-3.3594644 -7.5490279 -1.1612605
-3.3369594 -7.4320087 -1.3384671
-3.3698773 -7.5053234 -1.1562502
-3.3579929 -7.4095302 -1.3365216
-3.3870618 -7.4736719 -1.1531883
-3.3776231 -7.3875847 -1.3345761
-3.3928871 -7.4209704 -1.1467865
-3.4029274 -7.3781357 -1.3349004
-3.4149873 -7.404284 -1.1459514
-3.4266164 -7.3584571 -1.3336035
-3.4395962 -7.3863306 -1.1451164
-3.4468024 -7.3381228 -1.3319823
-3.4615433 -7.3695064 -1.1442813
-3.4736521 -7.3320022 -1.332955
-3.4958203 -7.3127103 -1.3316581
-3.5235846 -7.3707891 -1.1481781
-3.5251939 -7.3117442 -1.3336035
-3.5523088 -7.3679843 -1.1495699
-3.5524204 -7.3029447 -1.334252
-3.565876 -7.3306065 -1.145673
-3.5766184 -7.2911239 -1.334252
-3.6067386 -7.3525252 -1.1509616
-3.6411662 -7.3576407 -1.1537451
-3.9197071 -7.9204836 -2.0939395
-3.6540487 -7.3224874 -1.1501266
-3.9433439 -7.9022169 -2.092556
-3.6774213 -7.3085613 -1.1498482
-3.7005975 -7.287971 -1.1487349
-3.7283549 -7.2827096 -1.1498482
-3.7897284 -7.342464 -1.1612605
-3.8391128 -7.374866 -1.1684976
-3.87551 -7.3848929 -1.1721159
-3.9077504 -7.383574 -1.1740644
-3.9247561 -7.356595 -1.1718376
-3.9626098 -7.3655238 -1.175456
-4.0049515 -7.3854218 -1.1807446
-4.0550675 -7.419023 -1.18826
-4.0879683 -7.4145184 -1.1899301
-4.11061 -7.397459 -1.1893734
-4.1380215 -7.3889709 -1.1902084
-4.1644487 -7.3786578 -1.1907651
-4.1980157 -7.3778467 -1.192992
-4.2296567 -7.373456 -1.194662
-4.3934574 -7.6590056 -0.8237657
-4.2649875 -7.3782496 -1.1977237
-4.2927098 -7.3667417 -1.1982806
-4.3411822 -7.3934546 -1.2049607
-4.3411822 -7.3934546 -1.2049607
-4.4612579 -7.1422811 -1.3835366
-4.4975314 -7.1474919 -1.3874276
-4.5361934 -7.1534157 -1.3916427
-4.5652022 -7.1466494 -1.3932639
-4.7109065 -7.2652588 -1.2169297
-4.7405705 -7.2554035 -1.2180431
-4.7570648 -7.2806482 -1.6385962
-4.7776699 -7.2594953 -1.2213832
-4.9898696 -7.5819254 -0.84680295
-4.792963 -7.2304058 -1.2191564
-5.0204864 -7.5736351 -0.84773189
-4.8733478 -7.2934818 -1.2327955
-4.9028702 -7.2879944 -1.2344656
-4.8854084 -7.2075858 -1.4305515
-4.9338355 -7.2790322 -1.2358572
-4.9450393 -7.2410126 -1.440603
-4.96033 -7.2634025 -1.2361355
-4.9913921 -7.2570953 -1.4470879
-4.9933686 -7.2599688 -1.2383624
-5.0358028 -7.2672033 -1.4525999
-5.026577 -7.2538896 -1.2403108
-5.0689101 -7.263412 -1.4551939
-5.0687385 -7.2631664 -1.2447643
-5.1180701 -7.2795773 -1.462003
-5.1100092 -7.2681112 -1.2486612
