# .PCD v0.7 - Point Cloud Data file format
VERSION 0.7
FIELDS x y z
SIZE 4 4 4
TYPE F F F
COUNT 1 1 1
WIDTH 158
HEIGHT 1
VIEWPOINT 0 0 0 1 0 0 0
POINTS 158
DATA ascii
15.931284 -8.6607847 1.6917481
16.11204 -8.8283958 1.7140422
16.011206 -8.8423061 1.706425
16.157871 -9.0007448 1.7255607
16.077579 -9.0260067 1.7201731
15.882907 -8.9861164 1.7025236
15.86167 -9.0436678 1.7034525
15.764052 -8.9880104 2.1220734
15.637862 -8.9885387 2.1092968
15.139606 -8.7021437 2.4541786
15.324512 -8.879735 2.0711994
15.336153 -8.9545431 2.0767746
15.270562 -8.9878702 2.0721285
15.315867 -9.0830545 1.6612796
15.244092 -9.0404882 2.0725932
15.171397 -9.0655146 2.0667856
14.904128 -8.9801044 1.6233797
14.99004 -9.0318689 2.0465753
15.291381 -9.2134342 2.5090129
14.867457 -9.0253448 1.6226364
15.239928 -9.320756 2.0890865
14.878506 -9.0997095 2.451117
16.610844 -10.239053 2.2818968
16.588612 -10.301414 2.2835228
15.191977 -9.5077543 2.518755
15.140405 -9.545496 1.6698257
16.852503 -10.624913 2.3297508
15.118757 -9.6057634 1.6711261
16.490038 -10.477012 2.2846842
15.239928 -9.320756 2.0890865
14.878506 -9.0997095 2.451117
16.610844 -10.239053 2.2818968
16.588612 -10.301414 2.2835228
15.191977 -9.5077543 2.518755
15.140405 -9.545496 1.6698257
16.852503 -10.624913 2.3297508
15.118757 -9.6057634 1.6711261
16.490038 -10.477012 2.2846842
15.8817 -10.164583 1.3185369
15.090175 -9.6579924 1.6714977
16.225986 -10.384933 2.2528591
15.891392 -10.249155 1.3223038
16.27969 -10.499588 1.8073057
16.195112 -10.525268 1.3506249
16.267984 -10.572628 1.8100923
15.058784 -9.7867641 2.1002371
16.528 -10.819739 0.92123395
15.744473 -10.306819 1.3158861
15.518077 -10.158613 1.730391
15.062812 -9.8605824 2.1053476
14.785882 -9.6792955 2.4836833
16.341921 -10.775511 0.91284889
15.656909 -10.323829 1.3114218
15.452718 -10.189189 1.7268611
14.86585 -9.8022223 2.08235
14.692525 -9.6879349 2.4733846
16.008009 -10.635695 0.89626527
15.555967 -10.335359 1.3059807
14.914272 -9.9090176 2.0939651
15.05783 -10.004397 2.5407443
15.653862 -10.475392 0.8783772
15.51 -10.379122 1.3050041
14.863343 -9.9463854 1.6685252
14.856565 -9.9418497 2.0904803
15.891898 -10.715184 0.4449974
15.638735 -10.544488 0.87958831
15.351265 -10.35066 1.2946802
15.135531 -10.205201 2.5655169
15.791767 -10.724018 0.44318697
15.30365 -10.392543 1.2935641
15.040757 -10.214015 1.6962068
14.740892 -10.01038 2.0837436
14.73951 -10.009441 2.5040026
15.741035 -10.770043 0.44281557
15.147078 -10.363657 1.2833796
14.636872 -10.014573 1.6545912
14.64356 -10.01915 2.0749161
14.928415 -10.214047 2.542136
15.716759 -10.830125 0.44314054
15.086343 -10.395717 1.2811474
14.623259 -10.076614 1.6568207
14.629885 -10.08118 2.0777037
15.754679 -10.933482 0.4452295
14.56686 -10.109156 1.6542197
14.456822 -10.032792 2.4731061
14.812732 -10.279787 2.9622664
14.901764 -10.422703 1.6965784
14.717047 -10.293507 2.1002371
14.465397 -10.117496 2.4808998
14.844495 -10.382648 2.9762087
14.531796 -10.235868 2.0786328
14.423671 -10.159707 2.4795082
14.998753 -10.639371 1.2858908
14.942759 -10.599652 1.7092118
14.789413 -10.490876 2.1204472
14.351132 -10.179981 2.4728279
14.951786 -10.684704 1.2850537
14.790635 -10.569545 1.6960212
14.607246 -10.438493 2.09954
14.373518 -10.271468 2.4828482
15.306184 -11.014819 0.87940198
15.104123 -10.869409 1.3012373
14.55159 -10.471788 2.0965202
15.274115 -11.072873 0.87977469
15.146855 -10.980618 1.308213
15.127863 -10.966849 1.7432102
14.600188 -10.584314 2.1088321
14.247148 -10.328381 2.4731061
15.131307 -11.046079 1.3100265
14.753652 -10.770386 1.7041956
14.171924 -10.345715 2.0519183
14.083249 -10.280981 2.4505603
14.489395 -10.577475 2.9473512
14.991397 -11.024364 1.3012373
14.388697 -10.581152 1.6662958
14.087713 -10.359815 2.0449493
14.139818 -10.398131 2.4667041
14.120331 -10.456125 2.0547059
13.980475 -10.424521 2.0393741
14.540513 -10.842113 2.5490947
14.059438 -10.636927 2.0616748
14.756665 -11.164427 2.6005888
13.694269 -10.432237 1.6061018
14.049372 -10.702752 2.065392
13.643552 -10.469066 1.6044297
13.980406 -10.727543 2.0607457
14.091104 -10.812485 2.4962089
13.709614 -10.592172 1.6163199
13.974623 -10.79692 2.0651596
13.937629 -10.768337 2.475333
13.647409 -10.620394 1.6133472
13.910198 -10.824895 2.0612104
13.874947 -10.797462 2.4708796
13.676384 -10.715947 1.6209644
13.841389 -10.845235 2.0563321
13.868685 -10.866623 2.4761682
13.649838 -10.772258 1.6222649
13.832223 -10.916193 2.4764464
13.84011 -10.997093 1.6492037
13.98654 -11.113443 2.0890865
13.822226 -11.057858 1.6514331
13.812612 -11.133436 1.6551486
14.340416 -11.800324 1.7326205
13.84011 -10.997093 1.6492037
13.98654 -11.113443 2.0890865
13.822226 -11.057858 1.6514331
13.812612 -11.133436 1.6551486
14.340416 -11.800324 1.7326205
14.160127 -11.730936 1.7155284
13.888255 -11.505705 2.1090646
13.8194 -11.530245 1.6791147
14.148486 -11.804818 2.1548278
13.706375 -11.513249 1.6700113
13.881106 -11.660022 2.1199827
13.655459 -11.552019 1.6687108
14.133019 -11.956017 2.1648169
14.085734 -11.996379 2.1636553
13.998539 -12.006677 2.1566863
