# .PCD v0.7 - Point Cloud Data file format
VERSION 0.7
FIELDS x y z
SIZE 4 4 4
TYPE F F F
COUNT 1 1 1
WIDTH 179
HEIGHT 1
VIEWPOINT 0 0 0 1 0 0 0
POINTS 179
DATA ascii
2.3317969 7.8368359 1.3433306
2.3412626 7.77426 1.3339278
2.3367279 7.759202 1.5267643
2.3658817 7.7626772 1.3332791
2.3515608 7.7156892 1.5197284
2.3809271 7.7105823 1.3258216
2.3548915 7.6262674 1.5038055
2.3317969 7.8368359 1.3433306
2.3412626 7.77426 1.3339278
2.3367279 7.759202 1.5267643
2.3658817 7.7626772 1.3332791
2.3515608 7.7156892 1.5197284
2.3809271 7.7105823 1.3258216
2.3548915 7.6262674 1.5038055
2.3452747 7.5067348 1.2921005
2.3866136 7.6390519 1.5078787
2.3707521 7.5007982 1.2924249
2.4101579 7.6254735 1.5067679
2.3993242 7.4999962 1.2937218
2.4427478 7.6357331 1.5104709
2.4247878 7.493876 1.294046
2.4632137 7.6126323 1.5075084
2.4472487 7.474112 1.2921005
2.4983356 7.6301365 1.5126927
2.6003089 7.8534036 1.1626521
2.4794664 7.4884372 1.2959915
2.5230088 7.6199431 1.5123224
2.596247 7.7503834 1.1487349
2.5124812 7.5003238 1.2995582
2.541471 7.5868649 1.5075084
2.6168535 7.7267227 1.146508
2.5443053 7.5125113 1.3031248
2.5811191 7.6212106 1.5160255
2.6251388 7.6674113 1.1389927
2.5685627 7.5021663 1.3028005
2.600646 7.5958738 1.5126927
2.6272628 7.5870833 1.1284156
2.5999029 7.5080724 1.3053944
2.6104257 7.5384612 1.5030648
2.6203446 7.4825368 1.1142199
2.6189187 7.4784641 1.3018279
2.6185336 7.477365 1.4926963
2.6266429 7.4215274 1.1064262
2.6344872 7.4436908 1.2972885
2.6295466 7.4297314 1.4849199
2.7432809 7.6701264 1.1448381
2.6937156 7.5315433 1.3141489
2.6707158 7.4672365 1.4941776
3.0001018 8.0412474 -0.40024483
3.0095422 8.0665512 0.19989139
3.0077839 8.0618382 0.40126967
3.0129929 7.9905157 0.19826664
3.0140572 7.9933386 0.3983815
3.0149474 7.9160881 -0.39502749
3.006736 7.8945289 -0.19613124
3.006736 7.8945289 0.19613124
3.0106809 7.9048862 0.39446849
3.0124214 7.827208 -0.3911145
3.009855 7.82054 -0.19455288
3.0134461 7.8298702 0.194785
3.0081158 7.8160205 0.3905555
2.9692466 7.6354041 -0.76431495
3.0124984 7.7466254 -0.19297455
2.9994543 7.7130828 0.19213898
3.016674 7.7573633 0.9733429
2.9960046 7.6292233 -0.76468647
3.0155129 7.6789007 -0.1915355
3.0096655 7.6640105 0.19116412
3.0280318 7.7107801 0.772861
3.0198712 7.6899996 0.96614158
3.0180998 7.6854882 1.1604254
3.0293641 7.6396079 -0.76673013
3.0343723 7.6522384 -0.57563043
3.0144293 7.6019449 -0.18986431
3.0078697 7.5854025 0
3.0055852 7.5796409 0.18930726
3.0358431 7.6559472 0.57590944
3.030098 7.641459 0.76691592
3.0336418 7.6503959 0.96242476
3.0318909 7.6459804 1.1559719
3.0495551 7.690527 1.3592186
3.0552707 7.6271391 -0.76654434
3.0610635 7.6416001 -0.57563043
3.0134354 7.5227017 -0.18814671
3.0640311 7.6490083 0.57618845
3.0626752 7.6456237 0.76840216
3.0603266 7.6397605 0.96242476
3.053405 7.6224813 1.1540235
3.063904 7.6486912 1.3537064
3.066642 7.6555266 1.5537964
3.0796366 7.6108885 -0.76598698
3.0914629 7.6401153 -0.57632798
3.0171788 7.4565325 -0.18675408
3.0892177 7.6345668 0.57590944
3.0811305 7.6145802 0.76635849
3.0877228 7.6308722 0.96265703
3.0911391 7.6393151 1.1581986
3.0920665 7.6416073 1.3543549
3.1138935 7.6227565 -0.76821637
3.1228158 7.644598 -0.57744414
3.014667 7.3798518 -0.1850829
3.0064034 7.3596225 0
3.0176914 7.3872552 0.18526858
3.1318696 7.6667614 0.57911825
3.1327202 7.6688437 0.772861
3.1408038 7.688632 0.9712522
3.1231937 7.6455235 1.1607038
3.0167675 7.3119855 -0.18364382
3.5196302 7.9876251 -0.61036915
3.5107 7.9673581 -0.40602121
3.5145154 7.976017 0
3.5127623 7.9720383 0.20225888
3.5199201 7.913312 -0.60562569
3.4905832 7.8473577 -0.40052435
3.5031865 7.8756919 -0.20012349
3.4869344 7.8391547 0.19919507
3.5069337 7.8142242 -0.59892911
3.4282446 7.6388879 -0.39046231
3.4384139 7.6615472 -0.1949707
3.4326832 7.648778 0.19464575
3.4620543 7.6462483 -0.58693099
3.4346027 7.5856194 -0.38831949
3.4514291 7.6227818 -0.19427438
3.446481 7.6118536 0.19399585
3.4812622 7.6177845 -0.58567536
3.4668753 7.5863023 -0.38897166
3.47137 7.5961375 -0.19390298
3.4722006 7.5979557 0.1939494
3.5156941 7.6261268 -0.58721
3.4945242 7.5802054 -0.38925114
3.4948685 7.5809522 -0.19381015
3.5007281 7.5936627 0.1941351
3.5288224 7.584868 -0.58497781
3.5142159 7.5534725 -0.38850582
3.5213046 7.5687089 -0.19381015
3.5238345 7.5741472 0.1939494
3.5459518 7.5526371 -0.58344316
3.5380161 7.5357342 -0.38822633
3.5426066 7.5455117 -0.19353162
3.5400572 7.5400815 0.19339237
3.5602705 7.5216231 -0.58190846
3.5556881 7.5119424 -0.38757417
3.5662923 7.5343451 -0.19353162
3.5697138 7.541574 0.19371732
3.5847869 7.505549 -0.58162946
3.5732796 7.4814558 -0.38664246
3.5951579 7.5272622 -0.1936709
3.5805078 7.4965897 0.19288172
3.5880125 7.4486818 -0.57814163
3.5894017 7.4515662 -0.38571084
3.602747 7.4792705 -0.19274247
3.59407 7.461257 0.19227824
3.6018662 7.4774423 0.58037388
3.6013291 7.406774 -0.57590944
3.5974679 7.3988333 -0.38366112
3.6126473 7.4300523 -0.19181402
3.6074021 7.4192643 0.1915355
3.6009626 7.4060202 0.3840338
3.6870687 7.5196047 -0.3905555
3.7112076 7.5688343 -0.19571343
3.7068062 7.5598583 0.19548132
3.7407215 7.6290269 0.39623868
3.7243838 7.5324082 -0.39185983
3.7779405 7.6407247 -0.19789524
3.7497058 7.583621 0
3.741606 7.5672398 0.19599196
3.7854822 7.6559772 0.39828834
3.7609284 7.5432601 -0.393071
3.8086088 7.6388922 -0.19817378
3.7729228 7.567317 0.19631691
3.8224368 7.6666265 0.39949951
3.8015971 7.5586429 -0.39456165
3.8451314 7.6452012 -0.19868442
3.8136878 7.5826821 0.19705968
3.8518667 7.6585927 0.39977902
3.8342881 7.5577979 -0.39521381
3.8781292 7.6442132 -0.19900937
3.8437531 7.5764542 0.19724534
3.8593316 7.5450401 -0.39521381
