# .PCD v0.7 - Point Cloud Data file format
VERSION 0.7
FIELDS x y z
SIZE 4 4 4
TYPE F F F
COUNT 1 1 1
WIDTH 81
HEIGHT 1
VIEWPOINT 0 0 0 1 0 0 0
POINTS 81
DATA ascii
-20.436914 -12.989685 1.1292756
-20.434258 -12.893059 1.12676
-20.437958 -12.800833 1.1246171
-20.444012 -12.700537 1.1223812
-20.4401 -12.604357 1.1198657
-20.43578 -12.508347 1.1173502
-20.438334 -12.412052 1.1151142
-20.438314 -12.319455 1.1128782
-20.436613 -12.221375 1.1104559
-20.444786 -12.129575 1.1085925
-20.445299 -12.038397 1.1064496
-20.436811 -11.942307 1.1038409
-20.259899 -11.649962 1.089866
-20.407738 -11.645092 1.0957354
-20.451458 -11.580306 1.096015
-20.456919 -11.48928 1.0941516
-20.433825 -11.38734 1.0908908
-20.443724 -11.299518 1.089307
-20.440996 -11.205039 1.0870709
-20.441185 -11.117146 1.0851145
-20.433985 -11.025583 1.0827852
-20.438728 -10.940788 1.0811082
-20.433825 -11.38734 1.0908908
-20.443724 -11.299518 1.089307
-20.440996 -11.205039 1.0870709
-20.441185 -11.117146 1.0851145
-20.433985 -11.025583 1.0827852
-20.438728 -10.940788 1.0811082
-20.439867 -10.845202 1.0790586
-20.440359 -10.758756 1.0771953
-20.444046 -10.674269 1.0755183
-20.44215 -10.582633 1.0734686
-20.441587 -10.496534 1.0716053
-20.440716 -10.406082 1.0696487
-20.437677 -10.314863 1.0675991
-20.443188 -10.232719 1.0661085
-20.439426 -10.146226 1.0641519
-20.444279 -10.06427 1.0626612
-20.439734 -9.9691238 1.0605184
-20.43491 -9.8830194 1.0585619
-20.44055 -9.802248 1.0571643
-20.438662 -9.7181091 1.0553942
-20.443541 -9.6330853 1.0539036
-20.448084 -9.5481367 1.0524129
-20.441561 -9.4626503 1.0504564
-20.44178 -9.3762445 1.0487794
-20.443661 -9.2951736 1.0472887
-20.439764 -9.2117376 1.0455185
-20.4515 -9.1269903 1.0444006
-20.436562 -8.9582644 1.0405807
-20.425558 -8.8685713 1.0384378
-20.440172 -8.7944708 1.0376925
-20.439503 -8.709754 1.0361086
-20.449532 -8.6298132 1.0350839
-20.391407 -8.525732 1.030705
-20.425104 -8.4603567 1.0309845
-20.443422 -8.3844595 1.0304254
-20.448503 -8.3032761 1.0292144
-20.448122 -8.2242374 1.0278168
-20.441437 -8.138773 1.0260466
-20.31963 -8.0123129 1.0185933
-20.266066 -7.9136376 1.0145872
-20.867067 -8.0603037 1.0431894
-21.108273 -8.0731335 1.0539036
-21.291872 -8.06252 1.0617296
-21.520527 -8.0676079 1.0717916
-21.754602 -8.0688648 1.08204
-21.985193 -8.0672045 1.0921019
-22.220263 -8.0699539 1.1024435
-22.460758 -8.0686646 1.1129713
-22.690695 -8.0664091 1.1230334
-22.93782 -8.0686836 1.1339339
-23.195572 -8.0639372 1.145207
-23.452667 -8.0662508 1.1565734
-23.710033 -8.0669394 1.1679398
-22.460758 -8.0686646 1.1129713
-22.690695 -8.0664091 1.1230334
-22.93782 -8.0686836 1.1339339
-23.195572 -8.0639372 1.145207
-23.452667 -8.0662508 1.1565734
-23.710033 -8.0669394 1.1679398
