# .PCD v0.7 - Point Cloud Data file format
VERSION 0.7
FIELDS x y z
SIZE 4 4 4
TYPE F F F
COUNT 1 1 1
WIDTH 91
HEIGHT 1
VIEWPOINT 0 0 0 1 0 0 0
POINTS 91
DATA ascii
3.883563 -16.701813 -0.39811158
3.8769093 -16.673197 0
3.8776765 -16.676497 0.39750811
3.8763204 -16.670664 0.79816049
3.8335238 -16.738047 -1.6020144
3.8292117 -16.719217 -1.1993928
3.8245831 -16.699009 -0.79890585
3.8245835 -16.699011 -0.39774024
3.8180232 -16.670366 0
3.8192267 -16.675621 0.39718318
3.8178926 -16.669796 0.79750836
3.7720108 -16.737728 -1.600714
3.7686357 -16.722752 -1.1986952
3.7640748 -16.702513 -0.79844004
3.7640731 -16.702505 -0.39750811
3.7580521 -16.675787 0
3.7605562 -16.686899 0.39713672
3.7574863 -16.673277 0.79704249
3.7134655 -16.736534 -1.5994134
3.7088382 -16.715679 -1.1973002
3.7060688 -16.703197 -0.79788101
3.7069316 -16.707087 -0.39732239
3.698833 -16.670586 0
3.7000022 -16.675856 0.39657965
3.6995783 -16.673944 0.79648352
3.656245 -16.740976 -1.5986704
3.6512575 -16.71814 -1.1966026
3.6476741 -16.701733 -0.79722881
3.6489482 -16.707567 -0.39704388
3.6418235 -16.674944 0
3.6451085 -16.689985 0.39662611
3.6412804 -16.672459 0.79583138
3.5952785 -16.741955 -1.5975555
3.5886908 -16.711277 -1.1952075
3.587676 -16.706553 -0.79685616
3.588088 -16.708471 -0.39676535
3.5802369 -16.671911 0
3.583051 -16.685015 0.39620832
3.5813839 -16.677252 0.79545861
3.5335233 -16.738815 -1.5960695
3.5295088 -16.719799 -1.1949284
3.5264368 -16.705246 -0.39639398
3.519125 -16.670609 0
3.5218942 -16.683727 0.39588338
3.5210819 -16.679878 0.7949928
3.4759734 -16.740692 -1.5951405
3.4703956 -16.713831 -1.1936728
3.4689896 -16.707058 -0.39616188
3.4617925 -16.672396 0
3.4637055 -16.68161 0.39555842
3.4625022 -16.675816 0.79424751
3.4159236 -16.744921 -1.5943974
3.4096386 -16.714111 -1.1928357
3.4082518 -16.707314 -0.39588338
3.3995759 -16.664783 0
3.4034557 -16.683802 0.39532632
3.4030731 -16.681927 0.79396802
3.3572454 -16.740534 -1.592911
3.3526263 -16.717503 -1.1922777
3.350472 -16.70676 -0.39560482
3.3442962 -16.675964 0
3.3477199 -16.693037 0.39527985
3.3449867 -16.679407 0.79331583
3.2968655 -16.742382 -1.5919821
3.2919376 -16.717358 -1.1914405
3.2894294 -16.70462 -0.39527985
3.2841332 -16.677725 0
3.2859526 -16.686964 0.39486209
3.2840419 -16.677261 0.79266363
3.2350018 -16.736193 -1.5903101
3.2316694 -16.718954 -1.1907431
3.2295811 -16.708149 -0.39509419
3.2232397 -16.675343 0
3.2254069 -16.686554 0.39458352
3.2235322 -16.676855 0.79210472
3.1776266 -16.737045 -1.5893811
3.1728594 -16.711935 -1.1894873
3.1726644 -16.710909 -0.39490849
3.1660585 -16.676115 0
3.1723106 -16.709044 0.7931295
3.1319623 -16.800348 -1.5943974
3.1411912 -16.849852 -1.1985557
3.1491127 -16.892345 -0.39894718
3.1558259 -16.928354 0
3.1633837 -16.968897 0.80496168
3.0143151 -16.16927 1.1501447
3.1199636 -17.049618 -1.6170629
2.9692979 -16.226276 1.153493
2.9580829 -16.48987 1.1714902
2.9502468 -16.783054 1.1915801
2.9437165 -17.077837 1.2118095
