# .PCD v0.7 - Point Cloud Data file format
VERSION 0.7
FIELDS x y z
SIZE 4 4 4
TYPE F F F
COUNT 1 1 1
WIDTH 107
HEIGHT 1
VIEWPOINT 0 0 0 1 0 0 0
POINTS 107
DATA ascii
-0.8341555 27.146868 1.8991898
-0.73981744 27.165569 1.9003059
-0.37011227 27.185093 1.901143
-0.2797277 27.164225 1.8996083
-0.18488371 27.161045 1.8993292
-0.090111643 27.171503 1.9000268
3.2399493e-07 27.169657 1.8998873
0.090092719 27.169508 1.8998873
0.18014413 27.161077 1.8993292
0.27502796 27.168264 1.8998873
0.36984131 27.165144 1.8997478
2.0451043 27.326666 1.9162103
2.1415646 27.333282 1.917187
2.2364817 27.319675 1.9167683
2.3272419 27.314098 1.9169079
2.4156888 27.282381 1.9152337
2.5074322 27.288128 1.9162103
2.5935674 27.133772 1.9060259
2.6770446 27.059502 1.901422
2.7704239 27.086201 1.9039332
2.9863276 27.356285 1.924302
3.0784566 27.315958 1.9222094
3.169477 27.309561 1.9224885
3.2721379 27.359741 1.9268134
3.3608947 27.332901 1.9256972
3.4540102 27.3414 1.9270923
3.5544631 27.330534 1.9272319
3.8369756 27.370878 1.9326729
3.9262564 27.313869 1.9296036
4.0236182 27.313814 1.9305801
4.1215992 27.349644 1.9340681
4.2139945 27.315372 1.9326729
4.3113832 27.344608 1.9357421
4.4007759 27.322277 1.935184
4.4882269 27.229193 1.9297431
4.5566583 27.084305 1.9205352
4.6447549 27.059214 1.9198377
4.7829266 27.292414 1.9375558
4.8793778 27.30979 1.9399276
4.9832444 27.339701 1.9432759
5.0789862 27.350487 1.9452291
5.1688662 27.303183 1.9431363
5.2631497 27.305487 1.9445314
5.3548288 27.293755 1.9449501
5.6517615 27.315319 1.9505305
5.7515917 27.3169 1.9520651
5.8442283 27.307432 1.9527627
5.9441881 27.308308 1.9542973
6.0368748 27.298183 1.9549949
6.1342959 27.286684 1.9556925
6.2354126 27.312872 1.9590409
6.3173862 27.255117 1.95639
6.4666715 27.039593 1.9441129
6.5723071 27.083921 1.9488564
6.7937522 27.187597 1.9595989
6.883213 27.142447 1.9580642
6.9855981 27.167778 1.961552
7.083921 27.15674 1.9625286
7.1790447 27.152388 1.9639238
7.2809172 27.172756 1.9671326
7.4794483 27.153965 1.9695042
7.6852794 27.177299 1.9749453
7.7813973 27.172764 1.9764799
7.8856459 27.178013 1.9788517
7.9852943 27.18425 1.9812233
8.0835581 27.167685 1.9820604
8.1816406 27.16748 1.9840137
8.2815828 27.172642 1.9863853
8.3899555 27.170696 1.9884779
7.8856459 27.178013 1.9788517
7.9852943 27.18425 1.9812233
8.0835581 27.167685 1.9820604
8.1816406 27.16748 1.9840137
8.2815828 27.172642 1.9863853
8.3899555 27.170696 1.9884779
8.4859552 27.16177 1.9898732
8.5501328 27.051678 1.9838741
8.5508852 26.729029 1.9623891
8.5430384 26.402504 1.9404856
8.5445127 26.095694 1.9201167
8.5432138 25.802052 1.9005849
8.547657 25.516685 1.8817507
8.5867949 25.354031 1.8718452
0.36943388 27.135218 1.897655
0.46478096 27.171667 1.9003059
0.55529779 27.189922 1.901701
0.65021217 27.187819 1.901701
0.74095863 27.207451 1.9032356
0.8315509 27.216812 1.9040728
0.93170321 27.225544 1.9049097
1.02235 27.232273 1.9056073
1.1133091 27.24468 1.9067235
1.2037454 27.242832 1.9068629
1.2991946 27.246435 1.9074211
1.3945056 27.24572 1.9077001
1.4850727 27.24493 1.907979
1.5807512 27.249538 1.9086766
1.6720641 27.260078 1.9097928
1.7637345 27.274292 1.9111879
1.8643882 27.277597 1.9118854
1.9454136 27.139923 1.9026775
2.3337059 27.33357 1.9183031
2.4234474 27.315746 1.9176055
3.6453459 27.320572 1.9273714
3.7479956 27.361053 1.9311383
3.8209531 27.222027 1.9222094
3.8972015 27.078186 1.9130015
