# .PCD v0.7 - Point Cloud Data file format
VERSION 0.7
FIELDS x y z
SIZE 4 4 4
TYPE F F F
COUNT 1 1 1
WIDTH 173
HEIGHT 1
VIEWPOINT 0 0 0 1 0 0 0
POINTS 173
DATA ascii
11.956675 -7.5382652 -1.3186941
11.975281 -7.5499959 -0.66018039
11.906755 -7.5650053 -1.316093
11.879716 -7.5478258 -0.65636057
12.041179 -7.6504116 0
11.956675 -7.5382652 -1.3186941
11.975281 -7.5499959 -0.66018039
11.906755 -7.5650053 -1.316093
11.879716 -7.5478258 -0.65636057
12.041179 -7.6504116 0
11.809484 -7.5582891 -1.3081044
11.790679 -7.5462542 -0.65282023
11.971945 -7.6622677 0
11.721107 -7.5595298 -1.3012303
11.719859 -7.5587249 -0.97519547
11.707182 -7.5505486 -0.64965254
11.701624 -7.5469637 -0.32327998
11.972017 -7.721354 0
11.654576 -7.5743561 -1.2967715
11.654927 -7.5745835 -0.97198671
11.658978 -7.5772161 -0.64844137
11.973501 -7.7816262 0
11.656053 -7.6304126 -1.299744
11.653114 -7.628489 -0.9739399
11.620414 -7.6070824 -0.64769602
11.984443 -7.845387 0
11.662272 -7.6898513 -1.3032739
11.650165 -7.6818676 -0.65077055
11.607725 -7.6538839 0
11.656921 -7.7448392 -1.3056892
11.56436 -7.6833415 -0.97087055
11.561709 -7.681581 -0.64732337
11.525965 -7.6578321 0
11.660963 -7.8033886 -1.3090333
11.499022 -7.6950197 -0.96752232
11.473079 -7.6776586 -0.64378303
11.450642 -7.6626434 0
11.65677 -7.8596301 -1.3116343
11.437354 -7.711688 -0.96459258
11.454492 -7.7232432 -0.64424884
11.468598 -7.7327547 0
11.656999 -7.9161415 -1.3146068
11.454631 -7.7787156 -0.96821988
11.465178 -7.7858777 -0.64629853
11.46771 -7.7875977 0
11.662166 -7.9792738 -1.3183224
11.47022 -7.8479443 -0.97184724
11.462663 -7.8427734 -0.64769602
11.463565 -7.8433909 0
11.661878 -8.0359821 -1.321295
11.458918 -7.8961258 -0.97310281
11.462914 -7.8988791 -0.64918673
11.463843 -7.8995199 0
11.460534 -7.9534183 -0.97547448
11.45307 -7.9482379 -0.65011835
11.468803 -7.9591565 0
11.454197 -8.0113792 -0.97742772
11.461515 -8.0164986 -0.6522612
11.480527 -8.0297956 0
11.436502 -8.0556126 -0.65235436
11.470187 -8.07934 0
11.443945 -8.1177664 -0.65431088
11.466341 -8.1336536 -0.32639021
11.462907 -8.131218 0
11.433419 -8.1704416 -0.65533572
11.463909 -8.1922302 -0.32713297
11.476762 -8.2014151 0
11.435451 -8.2293158 -0.65701276
11.464269 -8.2500534 -0.32792214
11.481969 -8.2627916 0
11.437388 -8.2914629 -0.65878284
11.466159 -8.3123198 -0.32880414
11.464392 -8.311039 0
11.442101 -8.3529043 -0.66064626
11.465844 -8.3702364 0
11.424142 -8.4010792 -0.66129839
11.451194 -8.4209728 -0.3300111
11.473616 -8.4374609 0
11.42833 -8.4626951 -0.66316175
11.453737 -8.4815083 -0.3308931
11.455216 -8.482604 0
11.429033 -8.5220423 -0.66483873
11.439975 -8.530201 -0.33131093
11.650524 -8.7538214 -1.3595665
11.416889 -8.5782757 -0.66595674
11.462983 -8.6129084 -0.33288926
11.461275 -8.6116257 0
11.650017 -8.8140354 -1.3629106
11.445736 -8.659482 -0.66931075
11.453493 -8.6653509 -0.33344632
11.462959 -8.672513 0
11.650822 -8.8755474 -1.3664405
11.42967 -8.7070751 -0.6700561
11.459592 -8.7298689 0
11.648205 -8.9379826 -1.3697846
11.421396 -8.7639456 -0.67136043
11.454435 -8.7892981 0
11.653171 -9.0033455 -1.3738718
11.430215 -8.8310871 -0.67359644
11.456881 -8.8516893 0
11.648389 -9.0647583 -1.3770301
11.427698 -8.8930178 -0.67527342
11.473264 -8.9284763 0
11.644913 -9.1242151 -1.3801885
11.428024 -8.9542761 -0.67704356
11.459335 -8.9788094 0
11.650509 -9.194416 -1.3846474
11.42336 -9.0151529 -0.67862743
11.462463 -9.0460129 0
11.64646 -9.2540598 -1.3878056
11.421556 -9.0753555 -0.68030447
11.449674 -9.0976973 -0.33952752
11.469984 -9.1138353 0
11.649917 -9.3199978 -1.3918929
11.417918 -9.1343975 -0.68188828
11.455352 -9.1643448 -0.34059525
11.463123 -9.1705618 0
11.642036 -9.3838787 -1.3950512
11.418583 -9.2037678 -0.68393797
11.454377 -9.2326193 -0.34157008
11.451236 -9.2300873 0
11.644872 -9.450038 -1.3991385
11.41282 -9.2617245 -0.68542862
11.448539 -9.2907104 -0.34231284
11.456283 -9.2969942 0
11.65048 -9.5188417 -1.4035972
11.423816 -9.3336487 -0.68794411
11.439344 -9.3463364 -0.34296274
11.453268 -9.3577127 0
11.643323 -9.5809631 -1.4067556
11.428147 -9.4039001 -1.034907
11.41585 -9.3937807 -0.68943483
11.457599 -9.4281359 -0.34449464
11.468409 -9.4370298 0
11.64646 -9.2540598 -1.3878056
11.421556 -9.0753555 -0.68030447
11.449674 -9.0976973 -0.33952752
11.469984 -9.1138353 0
11.649917 -9.3199978 -1.3918929
11.417918 -9.1343975 -0.68188828
11.455352 -9.1643448 -0.34059525
11.463123 -9.1705618 0
11.642036 -9.3838787 -1.3950512
11.418583 -9.2037678 -0.68393797
11.454377 -9.2326193 -0.34157008
11.451236 -9.2300873 0
11.644872 -9.450038 -1.3991385
11.41282 -9.2617245 -0.68542862
11.448539 -9.2907104 -0.34231284
11.456283 -9.2969942 0
11.65048 -9.5188417 -1.4035972
11.423816 -9.3336487 -0.68794411
11.439344 -9.3463364 -0.34296274
11.453268 -9.3577127 0
11.643323 -9.5809631 -1.4067556
11.428147 -9.4039001 -1.034907
11.41585 -9.3937807 -0.68943483
11.457599 -9.4281359 -0.34449464
11.468409 -9.4370298 0
11.429164 -9.4684744 -1.0378368
11.421558 -9.4621735 -0.69167078
11.453986 -9.4890375 -0.34533021
11.461694 -9.4954233 0
11.431278 -9.5377102 -1.0410457
11.423742 -9.5314226 -0.69381362
11.45457 -9.5571442 -0.3463515
11.460728 -9.5622816 0
11.428614 -9.599947 -1.0436964
11.437964 -9.6078024 -0.6966086
11.421283 -9.5937901 -0.3463051
11.427423 -9.5989475 0
11.428543 -9.6681299 -1.0467657
11.413508 -9.6554108 -0.69716763
