# .PCD v0.7 - Point Cloud Data file format
VERSION 0.7
FIELDS x y z
SIZE 4 4 4
TYPE F F F
COUNT 1 1 1
WIDTH 75
HEIGHT 1
VIEWPOINT 0 0 0 1 0 0 0
POINTS 75
DATA ascii
1.9345334 9.8603859 -0.93746543
1.9675339 9.8376083 -0.93597919
1.9969678 9.8154192 -0.93449295
2.0331399 9.826293 -0.93616498
2.0629127 9.7977018 -0.93412143
2.0937226 9.7830181 -0.93337822
2.1299794 9.7853785 -0.93430716
2.1615598 9.7743721 -0.93393564
2.1952219 9.7648258 -0.93374979
2.2271507 9.7555504 -0.93356401
2.2648828 9.7713909 -0.9357934
2.2970257 9.7475185 -0.93430716
2.3284132 9.7359743 -0.93393564
2.3625672 9.735939 -0.93467873
2.3998699 9.741168 -0.93597919
2.4326448 9.7350864 -0.93616498
2.4680786 9.7323284 -0.93672234
2.5028162 9.7337341 -0.93765134
2.5382881 9.7307177 -0.93820864
2.5720723 9.7280226 -0.938766
2.6089544 9.7367516 -0.94043803
2.8523188 9.9603424 -0.72449076
2.9303074 9.7302074 -0.94805515
2.9648831 9.728056 -0.94879836
3.0022829 9.7228298 -0.94935566
3.107537 10.063693 -0.49117571
2.9303074 9.7302074 -0.94805515
2.9648831 9.728056 -0.94879836
3.0022829 9.7228298 -0.94935566
3.107537 10.063693 -0.49117571
3.033319 9.7090206 -0.94898409
3.1087186 9.9503593 -0.48614469
3.2129734 9.9297857 -0.48670369
3.1645899 9.6649351 -0.94879836
3.1916177 9.6392632 -0.94731206
3.2353592 9.6582775 -0.9502846
3.328371 9.7213869 -0.95864487
3.3622875 9.7097082 -0.95864487
3.5468884 10.242804 -0.75797385
3.4014235 9.7129498 -0.96013111
3.5766835 10.213414 -0.75671822
3.4382675 9.714756 -0.96143162
3.605876 10.188331 -0.75574166
3.4684501 9.6976767 -0.96087432
3.6309056 10.151896 -0.75392795
3.5083773 9.702364 -0.96254629
3.6636088 10.131654 -0.75336987
3.540854 9.6863184 -0.96217477
3.6804557 10.068212 -0.74960303
3.5805423 9.6950712 -0.96421832
3.7041445 10.02975 -0.74764991
3.6189401 9.699935 -0.96589047
3.7771385 10.123959 -0.75560212
3.6576979 9.7002859 -0.96719092
3.8546929 10.222721 -0.76397294
3.6997657 9.7141571 -0.96979189
3.8630052 10.14276 -0.75895041
3.7450941 9.7309198 -0.97276437
3.8926518 10.11432 -0.75783432
3.8245311 9.8347635 -0.73788393
3.8622265 9.8350277 -0.73886061
4.1266704 9.9088259 -0.75057966
4.2846189 9.7237282 -0.99134284
4.3387651 9.754199 -0.99598736
4.3800592 9.7597418 -0.99803102
4.4181471 9.757863 -0.99933153
4.4596338 9.7586813 -1.0010036
4.499476 9.7601137 -1.0026757
4.543591 9.766017 -1.0049051
4.5827341 9.7609119 -1.0060198
4.622745 9.7662659 -1.0080633
4.6611018 9.7590532 -1.0089923
4.7072682 9.7722464 -1.0119648
4.7500176 9.7692566 -1.0134511
4.791152 9.7713308 -1.015309
