# .PCD v0.7 - Point Cloud Data file format
VERSION 0.7
FIELDS x y z
SIZE 4 4 4
TYPE F F F
COUNT 1 1 1
WIDTH 95
HEIGHT 1
VIEWPOINT 0 0 0 1 0 0 0
POINTS 95
DATA ascii
8.1866751 -3.1606164 1.6534083
8.2098236 -3.2041783 1.6604441
8.3854446 -3.3692272 1.7026588
8.1254673 -3.7252765 1.6841437
8.0542717 -3.7574799 1.6745157
8.0475578 -3.7903244 1.6759968
8.0039749 -3.8022785 1.4558424
7.9745841 -3.7883165 1.6634065
7.98981 -3.8280754 0.82655251
7.9719844 -3.8195348 1.0337412
7.9839206 -3.8252535 1.2442076
7.9735231 -3.820272 1.4525999
7.9376259 -3.835489 0.82246524
7.9521203 -3.8424928 1.032812
7.9230437 -3.8284428 1.2366923
7.9288268 -3.8312373 1.4467636
7.8633299 -3.8335035 0.81614858
7.8958049 -3.8493357 1.0272369
7.8793669 -3.8413219 1.2319604
7.8852468 -3.8441882 1.4412515
7.5012298 -3.6569738 1.5723118
7.8481135 -3.8600492 0.81596285
7.8751903 -3.8733666 1.0263076
7.8570242 -3.8644316 1.2305686
7.8664675 -3.8690763 1.4402789
7.4425645 -3.6605821 1.5626838
7.6301126 -3.7843013 0.79459774
7.5971408 -3.7679484 0.99169469
7.5017271 -3.7206261 1.1768478
7.3779936 -3.6592581 1.353058
7.4110165 -3.6756365 1.5586104
7.5901423 -3.7975469 0.79181093
7.5501881 -3.7775569 0.98728096
7.4798374 -3.7423584 1.175456
7.1675005 -3.5860882 1.316743
7.4086866 -3.7067599 1.5608323
7.5686173 -3.8182106 0.79088199
7.5393944 -3.8034682 0.98751336
7.4479365 -3.7573297 1.1723944
7.4322066 -3.7493942 1.3676488
7.4033732 -3.7348485 1.5623136
7.5488148 -3.8396771 0.7901389
7.5338221 -3.832051 0.98844248
7.4213123 -3.7748237 1.1701674
7.4232497 -3.7758088 1.3682973
7.3944516 -3.7611609 1.5630541
7.5459967 -3.8714583 0.79125357
7.5150981 -3.8556056 0.98774564
7.4080906 -3.8007057 1.1701674
7.4275837 -3.8107066 1.3715396
7.3987646 -3.7959211 1.5667572
7.5412803 -3.9023514 0.79218251
7.5121784 -3.8872921 0.98913944
7.421164 -3.8401954 1.1743428
7.421248 -3.8402388 1.3728366
7.385469 -3.8217244 1.5667572
7.6130433 -3.9715476 0.80110013
7.5327101 -3.9296393 0.99355316
7.3715129 -3.8455467 1.1684976
7.2054996 -3.7589414 1.3352246
7.3954086 -3.8580124 1.5715712
7.8078046 -4.1061449 0.82302266
8.0242281 -4.2199626 1.0602236
7.1737819 -3.7727108 1.3316581
7.3877926 -3.8852596 1.572682
7.7811103 -4.126843 0.82172215
8.004797 -4.2454791 1.273434
7.1222119 -3.7773852 1.3245246
7.3811312 -3.9147077 1.5741633
7.6901116 -4.1113133 0.81354761
7.34094 -3.924638 1.1698891
7.3681087 -3.939163 1.5741633
7.3376565 -3.955878 1.1715592
7.2043099 -3.9165065 1.3472216
7.7087283 -4.2239037 1.0279337
7.1860905 -3.9375305 1.346249
7.4133363 -4.062047 1.5926784
7.391223 -4.0818572 1.5908269
7.6526794 -4.2629261 1.2311254
7.0534177 -3.9291074 1.5212097
7.6402287 -4.2892494 1.2314037
7.5294876 -4.2599792 1.0116726
7.6173434 -4.3096857 1.2300119
7.5669374 -4.4875622 1.236414
7.5537143 -4.5136452 1.2366923
7.3762608 -4.4076099 1.4117455
7.3516045 -4.429523 1.4101243
7.8538485 -4.7677078 1.2912482
7.2997608 -4.4313469 1.4029911
7.2883925 -4.4575882 1.4036394
7.1889753 -4.4991522 1.5978626
7.2883925 -4.4575882 1.4036394
7.1889753 -4.4991522 1.5978626
7.1423779 -4.7095304 1.4055849
7.1357584 -4.7409859 1.4075304
