# .PCD v0.7 - Point Cloud Data file format
VERSION 0.7
FIELDS x y z
SIZE 4 4 4
TYPE F F F
COUNT 1 1 1
WIDTH 89
HEIGHT 1
VIEWPOINT 0 0 0 1 0 0 0
POINTS 89
DATA ascii
5.6395712 -13.132779 -0.66651571
5.6323447 -13.115951 -0.33140376
5.567832 -13.085228 -0.66316175
5.5856895 -13.127196 -0.33121806
5.5159144 -13.089855 -0.6624164
5.5343976 -13.133717 -0.3308931
5.47019 -13.109029 -0.6624164
5.4838996 -13.141883 -0.3306146
5.408371 -13.082787 -0.66018039
5.433414 -13.143367 -0.3301968
5.3776765 -13.131706 -0.32945403
5.3325968 -13.145761 -0.3293612
5.2776756 -13.148518 -0.3289434
5.2266579 -13.147367 -0.3284792
5.1669159 -13.123697 -0.32745793
5.1167178 -13.130476 -0.3271794
5.0673885 -13.132447 -0.32680804
5.0172386 -13.138848 -0.3265295
4.9658623 -13.134841 -0.32601884
4.9164815 -13.142732 -0.32578674
4.866622 -13.142087 -0.32536894
4.8161349 -13.13938 -0.32490474
4.7645359 -13.147545 -0.32467264
4.7148366 -13.146333 -0.32425481
4.6645284 -13.143053 -0.32379061
4.6133261 -13.144163 -0.32341924
4.5638089 -13.142389 -0.32300144
4.5140095 -13.146893 -0.32272291
4.4642344 -13.15121 -0.32244438
4.4180546 -13.15836 -0.32225871
4.3687239 -13.15586 -0.32184091
4.3252683 -13.178629 -0.32202658
4.2730708 -13.174627 -0.32156238
4.2256947 -13.177301 -0.32128385
4.1760492 -13.180534 -0.32100531
4.1263418 -13.175229 -0.32054108
4.0796728 -13.179289 -0.32030898
4.0327182 -13.198668 -0.64359671
4.0254965 -13.175034 -0.31984478
3.9825771 -13.19093 -0.64257187
3.9846754 -13.19788 -0.32007688
3.9359567 -13.194492 -0.642106
3.937458 -13.199525 -0.31979835
3.8870547 -13.198568 -0.64164019
3.888536 -13.203598 -0.31956625
3.8399165 -13.199877 -0.64108121
3.8419366 -13.20682 -0.31933415
3.7894056 -13.197838 -0.64033586
3.7891908 -13.197089 -0.31877708
3.743439 -13.202643 -0.63996321
3.7426796 -13.199965 -0.31854498
3.6935637 -13.202163 -0.63931102
3.6944263 -13.205247 -0.31835929
3.6455076 -13.198931 -0.63856566
3.643163 -13.190442 -0.31770939
3.8870547 -13.198568 -0.64164019
3.888536 -13.203598 -0.31956625
3.8399165 -13.199877 -0.64108121
3.8419366 -13.20682 -0.31933415
3.7894056 -13.197838 -0.64033586
3.7891908 -13.197089 -0.31877708
3.743439 -13.202643 -0.63996321
3.7426796 -13.199965 -0.31854498
3.6935637 -13.202163 -0.63931102
3.6944263 -13.205247 -0.31835929
3.6455076 -13.198931 -0.63856566
3.643163 -13.190442 -0.31770939
3.5985651 -13.199384 -0.63800669
3.5988758 -13.200522 -0.31766295
3.5465338 -13.198979 -0.63735455
3.5457993 -13.196246 -0.31724516
3.4991596 -13.197149 -0.6367023
3.5015061 -13.205998 -0.31719875
3.451839 -13.195149 -0.63605016
3.4536474 -13.202063 -0.31682739
3.4027646 -13.195512 -0.63549113
3.403548 -13.198548 -0.31645602
3.3560345 -13.195107 -0.63493216
3.3582835 -13.203948 -0.31631672
3.3075256 -13.197051 -0.63446635
3.3082838 -13.200076 -0.31594536
3.2576077 -13.192999 -0.63372099
3.2602694 -13.203779 -0.31575969
3.2100596 -13.188201 -0.63297564
3.2122097 -13.197033 -0.31534189
3.1639793 -13.189059 -0.63250983
3.1707623 -13.217334 -0.31557399
3.159714 -13.376956 -0.64098799
3.1664324 -13.405399 -0.31979835
