# .PCD v0.7 - Point Cloud Data file format
VERSION 0.7
FIELDS x y z
SIZE 4 4 4
TYPE F F F
COUNT 1 1 1
WIDTH 118
HEIGHT 1
VIEWPOINT 0 0 0 1 0 0 0
POINTS 118
DATA ascii
11.215014 9.1239519 2.7239578
11.36956 8.9952574 2.3818748
11.399341 8.9542942 2.3815506
11.261012 8.6627636 2.3342113
12.525204 9.298645 2.9391046
11.753164 8.6020222 2.392899
11.768235 8.6130524 2.7476573
11.745859 8.5369997 2.7358077
12.478463 8.9997568 2.8987415
12.12785 8.6251907 2.8039436
11.753164 8.6020222 2.392899
11.768235 8.6130524 2.7476573
11.745859 8.5369997 2.7358077
12.478463 8.9997568 2.8987415
12.12785 8.6251907 2.8039436
12.321743 8.7017069 2.8420849
11.727603 8.2209129 2.6984067
12.359606 8.5997581 2.8369005
12.378357 8.5520182 2.8346786
12.385442 8.4931927 2.8294945
12.410289 8.4498644 2.8287539
12.439872 8.4097624 2.8291242
12.446296 8.3509645 2.82394
12.487008 8.3183584 2.8269024
12.507772 8.2692976 2.8250508
12.520337 8.218071 2.8217182
12.547298 8.1732464 2.821348
12.574104 8.1283283 2.8209774
12.636024 8.0500345 2.822829
12.774533 7.8958712 2.8294945
12.783584 7.8399377 2.8254213
12.806156 7.795455 2.8246806
13.488667 8.1497402 1.1020128
12.833616 7.7539639 2.8250508
12.834981 7.6907029 2.8191259
13.831441 8.2255812 0.75045907
12.85534 7.645092 2.8180151
13.815631 8.1542788 0.7481299
12.916168 7.6233969 2.8257916
13.921592 8.151433 0.75232244
13.804635 8.0829515 1.1186148
13.147758 7.6983347 2.5031409
13.831085 8.0369635 0.74598706
13.518074 7.7920899 -0.72763318
13.515261 7.7904682 -0.36218128
13.480782 7.7705941 0
13.513528 7.7894697 0.36213487
13.810591 7.9607024 0.7433784
13.617339 7.8493085 1.0990829
13.33586 7.6870584 2.163307
13.172498 7.5928931 2.4979532
13.526956 7.7972093 2.9416966
13.461337 7.7000313 0
13.505686 7.7253995 0.72558355
13.427334 7.6805811 1.4431692
13.437472 7.6863804 1.8103249
13.299387 7.6073942 2.1532865
13.189037 7.5442729 2.4963319
13.530557 7.7396259 2.9368827
13.513459 7.6673598 -0.72455871
13.512326 7.6667175 -0.36069578
13.456825 7.6352262 0
13.48798 7.6529036 0.36004588
13.475231 7.6456699 0.72250903
13.386517 7.5953341 1.4359237
13.408936 7.6080546 1.8028913
13.332753 7.5648298 2.1543996
13.191263 7.48455 2.4917924
13.494246 7.6564579 2.9231815
13.528966 7.6169581 -0.36046368
13.473358 7.58565 0
13.488894 7.5943971 0.35939598
13.47614 7.5872164 0.72120464
13.376927 7.5313587 1.4322081
13.408129 7.5489254 1.7994066
13.347413 7.5147419 2.1527297
13.217731 7.4417295 2.4921167
13.440782 7.5673089 2.9061475
13.562269 7.5765915 -0.72446555
13.541931 7.5652294 -0.36013871
13.535104 7.5614157 0
13.520985 7.5535278 0.35958165
13.506458 7.5454125 0.72148418
13.400088 7.4859891 1.4320222
13.420948 7.4976425 1.7977806
13.363614 7.4656124 2.1513381
13.435302 7.505661 2.5284317
13.617908 7.5423231 -0.7259562
13.58006 7.5213604 -0.36041725
13.571473 7.5166044 0
13.58006 7.5213604 0.36041725
13.549748 7.5045724 0.7223227
13.45008 7.4493709 1.4344374
13.4605 7.455142 1.7994066
13.409942 7.4271402 2.1543996
13.512786 7.4841003 2.5378346
13.709381 7.5336809 -0.72949654
13.664508 7.5090222 -0.36199558
13.64348 7.497467 0.36143851
13.590322 7.4682546 0.72316122
13.626545 7.4881601 1.4506006
13.514747 7.4267244 1.8033559
13.45533 7.394073 2.1577399
13.606717 7.4772639 2.5508044
13.499243 7.3600302 0.71701217
14.063916 7.6679001 1.4944457
13.574181 7.4008875 1.8080019
13.716409 7.4164338 0.72716737
13.634881 7.3723521 1.8126479
14.172601 7.663096 2.2643466
13.840575 7.3034844 1.8300705
13.825504 7.233942 1.8247277
13.859994 7.1935492 1.8261214
13.936417 7.2332134 2.2067289
13.839459 6.9453959 1.8107896
13.644567 6.7880716 1.4218041
13.650062 6.5605383 1.771066
13.783739 6.3368983 1.7740859
