# .PCD v0.7 - Point Cloud Data file format
VERSION 0.7
FIELDS x y z
SIZE 4 4 4
TYPE F F F
COUNT 1 1 1
WIDTH 302
HEIGHT 1
VIEWPOINT 0 0 0 1 0 0 0
POINTS 302
DATA ascii
2.9042182 -3.6826606 0.54846364
2.8722508 -3.6421247 0.65188682
2.8755507 -3.6463091 0.76293921
2.8600652 -3.6266727 0.87021494
2.8795612 -3.6777251 -0.21782412
2.8757508 -3.6728585 -0.10830158
2.8740597 -3.6706986 0
2.8672447 -3.6619947 0.21689245
2.8719783 -3.6680405 0.32576272
2.8407629 -3.6281726 0.42990392
2.8423605 -3.6302133 0.53917158
2.8375425 -3.6240597 0.64687663
2.845772 -3.6345704 0.75839984
2.8752563 -3.6722271 -0.87873191
2.8401182 -3.6273494 0.86799306
2.8425012 -3.6552999 -0.54149461
2.8175461 -3.6232092 -2.1725268
2.8366892 -3.6478262 -0.21549496
2.8463714 -3.6602769 -0.10765167
2.8434553 -3.656527 0
2.828104 -3.6367862 0.21484277
2.8377535 -3.6491947 0.32325152
2.8796473 -3.7030678 -1.3451103
2.8189361 -3.6249967 0.42841762
2.8529038 -3.6686773 -1.21662
2.8242097 -3.6317782 0.53801012
2.8600316 -3.6778431 -1.1039178
2.8169987 -3.6225052 0.64492822
2.8337038 -3.6439869 0.75839984
2.8509977 -3.6662261 -0.87502885
2.8087695 -3.611923 0.86206818
2.8425062 -3.6804276 -0.54381758
2.794466 -3.6182261 -2.1639702
2.8824887 -3.7321963 -2.0995746
2.8233554 -3.6556318 -0.21540178
2.8195517 -3.6507065 -0.10709462
2.8068638 -3.6342785 0
2.8421524 -3.6799695 -1.5711342
2.8062592 -3.6334958 0.21409746
2.8393261 -3.6763103 -1.4494586
2.8183196 -3.6491113 0.32241443
2.839148 -3.6760798 -1.3318797
2.8032484 -3.6295974 0.42786032
2.8312609 -3.6658678 -1.2125679
2.8012223 -3.6269743 0.53591937
2.806181 -3.6333942 0.64520651
2.8179853 -3.6486785 0.75742716
2.8196027 -3.6507726 -0.86910397
2.7967763 -3.6212175 0.86206818
2.8187628 -3.6761396 -0.54172689
2.7774191 -3.6222205 -2.1605477
2.8117936 -3.6670504 -0.21549496
2.8043575 -3.6573527 -0.10700177
2.8170152 -3.6738605 -1.807783
2.7941606 -3.6440542 0
2.8143015 -3.6703212 -1.5628111
2.8142247 -3.6702211 0.21568128
2.8160203 -3.6725631 -1.4440968
2.8079925 -3.6620934 0.32269347
2.7917728 -3.6409404 0.42804608
2.8031428 -3.6557684 -1.2059834
2.7897534 -3.6383066 0.53615165
2.8242736 -3.6833267 -1.0997678
2.7874553 -3.6353095 0.64381486
2.792022 -3.6412649 0.75386041
2.8056457 -3.6590328 -0.8687337
2.7853148 -3.6325178 0.8624385
2.7974913 -3.6748922 -0.54010075
2.7614737 -3.627578 -2.1579807
2.7917159 -3.6673052 -0.21493596
2.7843077 -3.6575737 -0.10672324
2.7947495 -3.6712906 0
2.7945867 -3.6710765 -1.5589697
2.8013964 -3.680022 0.21568128
2.7939324 -3.6702173 -1.4393308
2.7927756 -3.6686976 0.32241443
2.7886963 -3.6633389 0.42953232
2.786849 -3.660912 -1.2044638
2.790272 -3.6654086 0.53870696
2.8043268 -3.6838715 -1.0970011
2.7819464 -3.6544719 0.64548486
2.7804902 -3.652559 0.75418472
2.7988088 -3.6766229 -0.8705852
2.773809 -3.6437821 0.86280882
2.7908196 -3.6914639 -1.8070556
2.7801118 -3.6773005 -1.5576892
2.7805948 -3.6779397 -1.4387351
2.7902198 -3.6906705 0.32353052
2.7717292 -3.6662128 0.4287892
2.7723598 -3.667047 -1.2034509
2.7769036 -3.6730571 0.53847468
2.7733955 -3.668417 0.64631993
2.7838349 -3.6822252 0.75839984
2.7830453 -3.6811807 -0.86947429
2.7557838 -3.6451213 0.86095726
2.7695928 -3.6887512 -0.10709462
2.7584281 -3.6738813 -1.7939609
2.7835484 -3.7073381 0
2.7644894 -3.6819541 -1.5557685
2.7781277 -3.7001185 0.21577446
2.7695291 -3.6886663 -1.4393308
2.7851532 -3.7094755 0.32436758
2.7810781 -3.7040482 0.43213335
2.7648311 -3.682409 -1.2054769
2.777828 -3.6997194 0.54102993
2.7647829 -3.6823449 0.64715493
2.7751637 -3.6961708 0.75937253
2.7672825 -3.6856742 -0.86836338
2.7566619 -3.6715288 0.86503071
2.7732067 -3.7205424 -0.54265612
2.7740819 -3.7217164 -0.43306223
2.7675827 -3.712997 -0.21596079
2.7698438 -3.7160306 -0.10760525
2.7598329 -3.7026 0
2.7604189 -3.7033858 0.21540178
2.7577775 -3.6998422 -1.4399266
2.7459562 -3.6839831 0.32129833
2.7514701 -3.6913805 0.42953232
2.7427099 -3.6796277 -1.201425
2.7672708 -3.7125788 0.54149461
2.7646036 -3.7090003 0.76002103
2.7485273 -3.6874323 0.86651188
2.7602026 -3.7302001 -0.54265612
2.7646272 -3.7361794 -0.43361959
2.7118347 -3.6648343 -2.1579807
2.761735 -3.7322707 -0.21651979
2.7473412 -3.7128184 -0.10723388
2.7528398 -3.7202497 0
2.7409713 -3.70421 -1.557049
2.7462862 -3.7113929 0.21530862
2.747117 -3.7125156 -1.4411181
2.7508812 -3.7176025 0.32339102
2.7468596 -3.7121677 0.4308328
2.7321506 -3.6922896 -1.2024379
2.753113 -3.7206187 0.54126227
2.7585478 -3.7279634 -1.0988456
2.753145 -3.7206621 0.65049511
2.7528136 -3.7202141 0.76034528
2.7333007 -3.6938438 -0.86577123
2.7356389 -3.6970038 0.86651188
2.7454653 -3.7361312 -0.54219151
2.7463264 -3.737303 -0.43269065
2.743428 -3.7333589 -0.21605395
2.7480376 -3.7396317 -0.10774451
2.7523313 -3.7454746 0
2.7320387 -3.7178597 -1.5589697
2.733964 -3.7204795 0.21530862
2.734791 -3.7216051 -1.4411181
2.7503524 -3.7427816 0.32478613
2.7404308 -3.72928 0.43176174
2.7290573 -3.7138026 -1.2064899
2.7419364 -3.7313287 0.54149461
2.7300367 -3.7151356 -1.0923899
2.7759752 -3.7776501 0.65884548
2.77669 -3.7786226 0.77039677
2.7873752 -3.7931638 0.88687861
2.7455726 -3.7637393 -0.10816231
2.7498486 -3.7696011 0
2.7190444 -3.7273736 -1.5589697
2.739799 -3.7558248 0.21679929
2.7206588 -3.7295864 -1.4405224
2.7631388 -3.7878199 0.32785544
2.7194982 -3.7279954 -1.2080095
2.7285213 -3.7403648 -1.0970011
2.7173612 -3.7250662 -0.8687337
2.7787509 -3.8092217 0.88835984
2.7430208 -3.7865505 -0.43622056
2.7612283 -3.8116848 -0.10927643
2.7830923 -3.8418665 0
2.7144501 -3.7471108 -1.5634514
2.7138762 -3.7463183 -1.4435011
2.7184711 -3.7526615 -1.2130744
2.7229531 -3.7588484 -1.0997678
2.7165239 -3.7499733 -0.87243676
2.7672567 -3.8200066 0.88873011
2.7336879 -3.8001287 -0.76909983
2.7742608 -3.8565295 -0.11029771
2.77968 -3.864063 0
2.713074 -3.7714732 -1.5698537
2.7192764 -3.7800951 -1.4530331
2.7240896 -3.7867858 -1.2211784
2.7013814 -3.755219 -1.0960789
2.7189941 -3.7797027 -0.87725073
2.6525564 -3.7146306 -2.1605477
2.7828593 -3.8971064 -0.11117972
2.7836092 -3.8981564 0
2.7208135 -3.8102176 -1.5820181
2.6489823 -3.7371407 -2.1682487
2.4905565 -3.5901222 0.71786964
2.4579008 -3.5430491 0.81244743
2.4880829 -3.6134231 0.72078782
2.4611237 -3.5742702 0.81763172
2.4816558 -3.6298001 0.72240907
2.4603498 -3.5986371 0.82133478
2.5161808 -3.7080133 0.20897326
2.530704 -3.7294157 0.31515974
2.4800518 -3.6547713 0.7256515
2.4610162 -3.626719 0.82577837
2.5027544 -3.7146802 0.20888011
2.5082896 -3.7228954 0.31390411
2.4789457 -3.6793423 0.72889394
2.4566634 -3.64627 0.82837051
2.5053611 -3.7452908 0
2.4815361 -3.7096748 0.20813479
2.4881651 -3.7195845 0.31292754
2.473315 -3.6973848 0.73083937
2.4576721 -3.674 0.83281416
2.4894052 -3.7511158 0
2.4612942 -3.7087574 0.20757577
2.4612768 -3.7087312 0.3112534
2.4739332 -3.7278023 0.73505449
2.4594042 -3.7059095 0.83799839
2.4681489 -3.7459893 0
2.4390893 -3.7018843 0.20673726
2.4478667 -3.7152061 0.31111386
2.4648154 -3.7409296 0.73602724
2.4535897 -3.723892 0.84022027
2.4524291 -3.7491319 0
2.4202385 -3.6999209 0.20617826
2.4235196 -3.704937 0.30957922
2.459959 -3.7606432 0.73829693
2.4616699 -3.7632587 0.84725606
2.4251704 -3.7358618 0
2.4062207 -3.7066708 0.2060851
2.4094861 -3.7117009 0.30943972
2.4575624 -3.7857606 0.7415393
2.4517291 -3.7767744 0.84836698
2.3770161 -3.6884062 0
2.3895869 -3.7079124 0.20571244
2.3885181 -3.706254 0.30832359
2.4567552 -3.8121371 0.74510592
2.4455798 -3.7947965 0.8505888
2.3608942 -3.6916265 0
2.3766294 -3.7162311 0.20571244
2.3830907 -3.7263346 0.30930018
2.4572563 -3.8423038 0.7493211
2.4482021 -3.8281462 0.8561433
2.3619249 -3.7217972 0
2.3647134 -3.7261913 0.2058056
2.3561714 -3.7127314 0.30748653
2.4448864 -3.8525238 0.74964529
2.4443026 -3.8516037 0.85947609
2.3512785 -3.7323222 0.20571244
2.3459733 -3.7239006 0.30776557
2.4499803 -3.8889973 0.75515741
2.4409449 -3.874655 0.86280882
2.3494818 -3.7570379 0.2066441
2.3600578 -3.7739499 0.3112534
2.4475346 -3.9138336 0.75839984
2.4301667 -3.8860607 0.86354941
2.3443859 -3.77669 0.20729627
2.3517389 -3.7885356 0.31181145
2.4439104 -3.9370189 0.76131797
2.4369619 -3.9258251 0.8705852
2.3399546 -3.8005683 0.20813479
2.3451595 -3.8090219 0.31278804
2.4584353 -3.9930055 0.77039677
2.4359524 -3.9564884 0.87539917
2.3377564 -3.8253543 0.20906645
2.3408382 -3.8303971 0.31390411
2.4523842 -4.0129237 0.77266645
2.435117 -3.984669 0.87984282
2.3271301 -3.8365014 0.20925277
2.3374357 -3.8534913 0.31515974
2.4431572 -4.0277839 0.77396339
2.4320829 -4.0095267 0.88354588
2.3235052 -3.8593287 0.10458785
2.3391263 -3.8852754 0.21148878
2.3359642 -3.880023 0.31669441
2.4450564 -4.0612245 0.77882707
2.4268837 -4.0310397 0.88650829
2.3264246 -3.894881 0.10533059
2.3214517 -3.8865557 0.21111611
2.3367293 -3.9121332 0.31864759
2.4521174 -4.1053152 0.78563607
2.4299314 -4.0681715 0.89280343
2.330143 -3.9322207 0.10611976
2.3333333 -3.9376044 0.21344529
2.3261106 -3.9254158 0.31906611
2.4468274 -4.1291308 0.78855425
2.4217277 -4.0867743 0.89502525
2.3201313 -3.945096 0.10625903
2.323195 -3.9503055 0.32046124
2.4441264 -4.1559339 0.79212087
2.4260969 -4.1252775 0.90169078
2.3194447 -3.9756224 0.10686251
2.3194451 -3.9756234 0.32185638
2.4435277 -4.1883054 0.79666024
2.4285192 -4.1625805 0.90798593
2.3062482 -3.9832923 0.10686251
2.3152459 -3.9988327 0.32311201
2.437536 -4.2100496 0.79925424
2.4275043 -4.1927228 0.91279989
2.3029871 -4.008255 0.10732672
2.3158875 -4.0307074 0.32506517
2.3028426 -4.0405898 0.10797663
2.3097067 -4.0526338 0.32618126
2.2926605 -4.0555654 0.10816231
2.3092926 -4.0849867 0.32813445
2.2919154 -4.0858159 0.1087658
2.2986615 -4.0978422 0.32855299
2.2802987 -4.0968876 0.10885863
