# .PCD v0.7 - Point Cloud Data file format
VERSION 0.7
FIELDS x y z
SIZE 4 4 4
TYPE F F F
COUNT 1 1 1
WIDTH 138
HEIGHT 1
VIEWPOINT 0 0 0 1 0 0 0
POINTS 138
DATA ascii
-22.115095 -20.471642 5.6778746
-22.114075 -20.327808 5.6593595
-22.142801 -20.212067 5.6486206
-22.139818 -20.075153 5.6308455
-22.143465 -19.945076 5.614923
-22.147034 -19.808691 5.5982594
-22.142071 -19.672483 5.5804844
-22.142815 -19.535257 5.5634508
-22.154261 -19.415087 5.5501194
-22.155178 -19.279575 5.5334558
-22.131264 -19.130165 5.5116081
-22.139736 -19.002878 5.4971657
-22.138622 -18.868113 5.4805026
-22.145567 -18.747604 5.4668012
-22.147444 -18.623468 5.4519887
-22.141409 -18.486841 5.4345846
-22.145103 -18.365637 5.4205132
-22.142317 -18.233257 5.4042196
-22.149412 -18.116179 5.3912592
-22.146912 -17.985474 5.3753362
-22.145239 -17.862576 5.3605237
-22.147627 -17.737247 5.3460817
-22.144793 -17.608459 5.3305292
-22.142908 -17.487419 5.3160872
-22.142014 -17.367802 5.3020158
-22.140478 -17.2421 5.2872038
-22.146229 -17.128904 5.2749834
-22.148207 -17.007206 5.2612824
-22.145098 -16.888374 5.247211
-22.144365 -16.765892 5.233139
-22.141718 -16.648663 5.2194376
-22.143 -16.528946 5.2061071
-22.148451 -16.412935 5.1938872
-22.137856 -16.291636 5.1787043
-22.15209 -16.189142 5.1694469
-22.152781 -16.071327 5.156486
-22.150139 -15.957565 5.1435256
-22.151352 -15.84128 5.1309352
-22.160036 -15.730865 5.1201963
-22.144611 -15.609734 5.1046438
-22.151171 -15.504658 5.094275
-22.161034 -15.390851 5.0835361
-22.152084 -15.275994 5.0698352
-22.155588 -15.170253 5.0590963
-22.156393 -15.057467 5.0472465
-22.150808 -14.946537 5.034656
-22.157124 -14.838498 5.0242877
-22.144009 -14.723598 5.0102162
-22.15098 -14.616977 5.0002174
-22.148367 -14.510054 4.9887385
-22.149446 -14.400512 4.9776292
-22.151688 -14.292206 4.9668908
-22.15593 -14.191108 4.9572625
-22.162201 -14.086275 4.9476347
-22.160587 -13.982291 4.9368958
-22.150198 -13.873255 4.9243054
-22.16083 -13.767084 4.9154181
-22.161194 -13.665667 4.9054198
-22.167835 -13.568503 4.896903
-22.157942 -13.456358 4.8843126
-22.168779 -13.362514 4.8769069
-22.162996 -13.253777 4.865427
-22.161798 -13.148252 4.8550587
-22.162935 -13.049758 4.8458009
-22.165361 -12.95239 4.8369136
-22.169628 -12.85129 4.8280263
-22.171757 -12.74933 4.8187685
-22.166117 -12.64846 4.8084002
-22.170313 -12.553579 4.8002534
-22.166014 -12.449164 4.789885
-22.172842 -12.356456 4.7824788
-22.16423 -12.250464 4.7713695
-22.170666 -12.153183 4.7635932
-22.160774 -12.052362 4.7528548
-22.160835 -11.957341 4.7443376
-22.160513 -11.862453 4.7358208
-22.172842 -12.356456 4.7824788
-22.16423 -12.250464 4.7713695
-22.170666 -12.153183 4.7635932
-22.160774 -12.052362 4.7528548
-22.160835 -11.957341 4.7443376
-22.160513 -11.862453 4.7358208
-22.169121 -11.762728 4.7284145
-22.162783 -11.665351 4.7187867
-22.173468 -11.577236 4.7128615
-22.164875 -11.474465 4.7024932
-22.173079 -11.385637 4.696198
-22.175907 -11.289444 4.6884217
-22.166052 -11.187171 4.6780529
-22.18194 -11.103041 4.6736093
-22.162298 -11.001468 4.6617599
-22.175735 -10.916628 4.6569457
-22.173204 -10.814594 4.6480584
-22.173557 -10.723889 4.6406522
-22.168238 -10.630759 4.6321354
-22.166094 -10.539464 4.6243591
-22.183186 -10.452814 4.6202855
-22.180365 -10.357018 4.6121392
-22.177134 -10.266068 4.604363
-22.14852 -10.159093 4.5910316
-22.146303 -10.069319 4.5836253
-22.172403 -9.9925985 4.5821443
-22.172985 -9.8952456 4.5747385
-22.164333 -9.8033762 4.5662212
-22.288527 -9.7700644 4.5851068
-22.468523 -9.7556067 4.6151013
-22.717398 -9.7742567 4.6595378
-22.93038 -9.7711754 4.696198
-23.150858 -9.7697878 4.7343392
-23.369902 -9.7710524 4.7724805
-23.589201 -9.7709684 4.8106217
-23.819557 -9.7691126 4.850615
-24.033792 -9.7591114 4.8872752
-24.235603 -9.7475634 4.9217134
-24.473995 -9.744339 4.9631877
-24.753008 -9.7604561 5.0131788
-24.984795 -9.7562408 5.0535417
-25.234894 -9.7474594 5.0968671
-25.44331 -9.7311239 5.1324162
-25.701519 -9.7323055 5.1779637
-25.956335 -9.7305012 5.2227707
-26.235228 -9.7307463 5.2720208
-26.479378 -9.7162914 5.3142357
-26.587196 -9.6559362 5.3294187
-26.851952 -9.6461296 5.3757067
-27.159719 -9.6551218 5.4308815
-27.443741 -9.6537008 5.4812431
-27.746267 -9.6459856 5.5345669
-28.029003 -9.6402235 5.5845575
-28.349224 -9.6453466 5.6419549
-26.851952 -9.6461296 5.3757067
-27.159719 -9.6551218 5.4308815
-27.443741 -9.6537008 5.4812431
-27.746267 -9.6459856 5.5345669
-28.029003 -9.6402235 5.5845575
-28.349224 -9.6453466 5.6419549
-28.688234 -9.6490803 5.7026849
-29.005405 -9.6488171 5.7593412
