# .PCD v0.7 - Point Cloud Data file format
VERSION 0.7
FIELDS x y z
SIZE 4 4 4
TYPE F F F
COUNT 1 1 1
WIDTH 74
HEIGHT 1
VIEWPOINT 0 0 0 1 0 0 0
POINTS 74
DATA ascii
-0.67957419 -7.9924445 0.37406495
-0.75580508 -7.9217982 0.93059939
-0.74732751 -7.8329425 1.2927492
-0.75190532 -7.8809237 1.4915855
-0.77993369 -7.8835297 0.92641801
-0.77913505 -7.8754568 1.3002067
-0.77844399 -7.8684716 1.4897338
-0.80849689 -7.904613 0.9292056
-0.80685252 -7.888536 1.3028005
-0.80513173 -7.8717117 1.4908447
-0.83574885 -7.9117661 0.93036711
-0.83445895 -7.8995557 1.3050703
-0.8308183 -7.8650904 1.4901042
-0.86379135 -7.9127498 0.93083167
-0.85967195 -7.8750148 1.3015037
-0.85975975 -7.8758192 1.4926963
-0.89296436 -7.9235053 0.93245792
-0.88693482 -7.8700042 1.3011793
-0.88416505 -7.845427 1.487512
-0.91923404 -7.9205008 0.93245792
-0.91416472 -7.8768215 1.3028005
-0.90768349 -7.8209763 1.4834386
-1.0122849 -8.4766989 0.7964555
-0.94714344 -7.9312158 0.934084
-0.94238675 -7.8913836 1.3057188
-0.93011832 -7.78865 1.4778842
-1.0343475 -8.4119501 0.59265101
-1.0304458 -8.3802195 0.78772366
-0.97627759 -7.9396906 0.93547785
-0.96703702 -7.8645406 1.3018279
-0.94674635 -7.6995239 1.4615908
-1.0105915 -7.9996572 0.37602147
-1.0048422 -7.9541464 0.93756849
-0.98321766 -7.7829709 1.2888582
-0.97252017 -7.6982918 1.461961
-1.0385095 -7.9960804 0.37602147
-1.0920959 -8.4086723 0.59293002
-1.085669 -8.3591881 0.78642321
-1.0341364 -7.9624095 0.93896234
-1.0042791 -7.7325211 1.2810764
-1.0272316 -7.9092455 1.5026945
-1.0680003 -8.0042887 0.37658048
-1.1253992 -8.434473 0.59502274
-1.1243229 -8.4264059 0.79311138
-1.0629753 -7.9666276 0.93989146
-1.0508407 -7.8756828 1.3053944
-1.054834 -7.9056115 1.5026945
-1.0958918 -8.0105991 0.37704632
-1.0926191 -7.9866762 0.94267911
-1.079627 -7.8917089 1.3086369
-1.0879709 -7.9526997 1.5123224
-1.1202295 -7.9910936 0.37630093
-1.1188204 -7.9810419 0.94244683
-1.112639 -7.9369469 1.316743
-1.1159726 -7.9607272 1.5145442
-1.14644 -7.9853568 0.37620777
-1.148387 -7.9989171 0.94500214
-1.1280159 -7.8570256 1.3040975
-1.1418078 -7.9530911 1.5138037
-1.1782749 -7.9985852 0.94546676
-1.1519154 -7.8196468 1.2985854
-1.1700895 -7.9430189 1.5126927
-1.2071611 -8.0103474 0.94732511
-1.1687235 -7.7552876 1.2885339
-1.1899799 -7.8963394 1.504546
-1.2352297 -8.0161171 0.94848663
-1.1929309 -7.7416162 1.2869127
-1.2089741 -7.8457298 1.4956586
-1.2659894 -8.029417 0.95057732
-1.2571398 -7.9732895 1.3261459
-1.2244166 -7.7657456 1.4812168
-1.2929251 -8.0271358 0.95080972
-1.2895364 -8.0060968 1.3323065
-1.2448492 -7.7286563 1.4749217
