# .PCD v0.7 - Point Cloud Data file format
VERSION 0.7
FIELDS x y z intensity ring
SIZE 4 4 4 4 2
TYPE F F F F U
COUNT 1 1 1 1 1
WIDTH 1340
HEIGHT 1
VIEWPOINT 0 0 0 1 0 0 0
POINTS 1340
DATA ascii
0.20126265 3.2812355 -1.110806 1 9
1.6733489 27.281027 1.2746159 7 25
0.20209663 3.294832 -1.030051 2 10
1.7928669 29.229559 2.047771 8 26
0.20621303 3.3619428 -0.96583337 1 11
0.24033679 3.7165546 -2.2087014 10 0
0.22873165 3.5370934 -0.58233696 1 16
0.21479926 3.3216438 -1.8702054 2 1
0.23951125 3.7037885 -0.52162081 0 17
0.2119588 3.277719 -1.7464343 3 2
0.2815052 4.3531804 -0.51013392 1 18
0.21067928 3.2579327 -1.5453264 0 4
3.2216673 49.819683 -2.3281467 43 21
0.21126936 3.2670577 -1.3674806 0 6
1.7598233 27.21381 -0.63314414 18 22
0.21014945 3.2497394 -1.2716316 0 7
1.7621045 27.249086 0 10 23
0.20969321 3.2426841 -1.1827056 2 8
1.7616298 27.241745 0.63379401 7 24
0.21360911 3.3032393 -1.1184888 1 9
1.7645749 27.287289 1.2751749 7 25
0.21326733 3.2979538 -1.0312424 2 10
1.891325 29.247343 2.0494452 8 26
0.21711171 3.3574035 -0.9647308 1 11
0.25342652 3.7174094 -2.2097216 9 0
0.24188335 3.5480874 -0.5842824 1 16
0.22568201 3.3104365 -1.8643274 2 1
0.25351706 3.7187376 -0.52384758 0 17
0.22291933 3.2699118 -1.7426785 3 2
0.29737565 4.3620811 -0.51129544 1 18
0.22045282 3.2337317 -1.5342028 0 4
3.1655157 46.433647 -2.1704152 38 21
1.8559018 27.223459 -0.63351548 18 22
0.22123933 3.2452686 -1.2701766 0 7
1.8591225 27.270704 0 10 23
0.22177885 3.2531826 -1.1868099 0 8
1.8597096 27.279314 0.63481528 7 24
0.22243284 3.2627759 -1.1050438 1 9
1.8590068 27.269005 1.2746159 7 25
0.22477892 3.2971895 -1.0312424 2 10
1.9939563 29.248526 2.0500033 8 26
0.2324921 3.410331 -0.98016649 1 11
0.26550812 3.7131166 -2.2076812 10 0
0.25421193 3.55514 -0.58557934 1 16
0.23715691 3.3166265 -1.8682461 2 1
0.26669604 3.7297294 -0.5255177 0 17
0.2340143 3.2726774 -1.7445564 3 2
0.31311551 4.3789034 -0.51338613 1 18
0.23375458 3.2690451 -1.551316 0 4
1.9437315 27.18298 -1.2708892 18 21
1.9460328 27.215162 -0.63346905 18 22
0.23146921 3.2370844 -1.2672668 0 7
1.9501233 27.272367 0 10 23
0.23310265 3.2599277 -1.189546 0 8
1.9493128 27.261034 0.63453674 7 24
0.2336577 3.2676902 -1.1069646 1 9
1.9488612 27.254719 1.2742432 7 25
0.23598482 3.3002348 -1.0324339 2 10
2.0906606 29.237774 2.0497241 8 26
0.2782042 3.7173622 -2.2107418 9 0
0.26482078 3.5385332 -0.5829854 1 16
0.24789302 3.3123443 -1.8662868 2 1
0.27950546 3.7347493 -0.5263527 0 17
0.24460138 3.2683616 -1.7426785 3 2
0.32704088 4.3699174 -0.51245689 1 18
0.24580738 3.284476 -1.5590171 0 4
2.0354974 27.198299 -1.271914 22 21
2.0359669 27.204573 -0.63337624 9 22
0.24679007 3.2976067 -1.2912736 0 7
2.040695 27.267748 0 10 23
0.24405129 3.2610111 -1.1902301 0 8
2.0411897 27.274359 0.635001 7 24
0.24562307 3.2820134 -1.1120864 1 9
2.0413125 27.275997 1.2755475 7 25
0.2472118 3.303242 -1.0336255 2 10
2.0451043 27.326666 1.9162103 7 26
0.25510526 3.4087143 -0.98016649 1 11
0.29158083 3.7215133 -2.2138023 9 0
0.27732438 3.5395548 -0.58330971 1 16
0.25849968 3.2992909 -1.859429 2 1
0.29207557 3.7278275 -0.5255177 0 17
0.25614583 3.2692482 -1.7436175 3 2
0.3432228 4.3806314 -0.51385075 1 18
0.25825855 3.2962134 -1.5650066 0 4
2.1321356 27.212938 -1.2729388 22 21
2.1312227 27.201284 -0.63346905 9 22
0.25393304 3.2410057 -1.2694492 0 7
2.1364837 27.268433 0 10 23
0.25455135 3.2488973 -1.1861259 0 8
2.1365325 27.269058 0.63504738 7 24
0.25737324 3.2849138 -1.1133668 1 9
2.1372855 27.278666 1.2760134 7 25
0.25874004 3.3023589 -1.0336255 3 10
2.1415646 27.333282 1.917187 7 26
0.27300838 3.4844689 -1.0022175 1 11
0.30457056 3.7204728 -2.2138023 9 0
0.29000103 3.5424991 -0.58395815 1 16
0.27072698 3.3070574 -1.8643274 2 1
0.30573371 3.7346814 -0.52663106 0 17
0.26784512 3.2718542 -1.7454954 3 2
0.35835105 4.3774271 -0.51361847 1 18
0.26828888 3.2772748 -1.55645 0 4
3.2899055 40.187744 -1.8803867 59 21
2.2279618 27.215601 -0.63397968 9 22
0.26676562 3.2586675 -1.276724 0 7
2.2314992 27.258814 0 10 23
0.26650476 3.2554812 -1.188862 0 8
2.2325294 27.271399 0.63527948 7 24
0.26791146 3.2726645 -1.1095254 1 9
2.2344558 27.294931 1.2771313 7 25
0.27088985 3.3090467 -1.0360085 3 10
2.2364817 27.319675 1.9167683 7 26
0.31646934 3.7143002 -2.2107418 9 0
0.30308813 3.5572491 -0.58655208 1 16
0.28376538 3.3304639 -1.8780428 2 1
0.31610006 3.7099659 -0.52329093 0 17
0.27869442 3.2709479 -1.7454954 3 2
0.37370959 4.3861108 -0.51477993 1 18
0.27947947 3.2801621 -1.6535678 0 3
0.28176507 3.3069873 -1.5709963 0 4
3.4246926 40.19453 -1.8812253 59 21
2.3193953 27.222008 -0.63430464 9 22
0.2786783 3.2707589 -1.2818164 0 7
2.3217185 27.249271 0 10 23
0.28160766 3.3051398 -1.2073311 0 8
2.3221111 27.253881 0.63504738 7 24
0.27892432 3.2736461 -1.1101657 1 9
2.3249645 27.287371 1.2771313 7 25
0.28234872 3.3138373 -1.0377957 3 10
2.3272419 27.314098 1.9169079 7 26
2.1772797 25.554041 2.3927107 4 27
0.32923907 3.7183709 -2.2138023 9 0
0.31505606 3.5581901 -0.58687633 1 16
0.29419222 3.3225574 -1.8741242 2 1
0.33259261 3.7562449 -0.52997118 0 17
0.28891608 3.2629697 -1.7417396 3 2
0.38755071 4.3769326 -0.51385075 1 18
0.29098523 3.2863381 -1.6571586 0 3
0.28969988 3.2718217 -1.5547386 0 4
2.4103541 27.222134 -0.63449031 9 22
2.413826 27.261345 0 10 23
0.28742716 3.2461541 -1.1861259 0 8
2.4142339 27.265951 0.63551164 7 24
0.29144907 3.2915769 -1.1165681 1 9
2.4161394 27.287472 1.2775041 7 25
0.29299879 3.3090792 -1.0366042 3 10
2.4156888 27.282381 1.9152337 7 26
2.2470739 25.378075 2.376919 9 27
0.34188369 3.7206848 -2.2158427 13 0
0.3266741 3.5551608 -0.58655208 1 16
0.30648586 3.335454 -1.8819616 2 1
0.34504795 3.7551212 -0.52997118 0 17
0.30038211 3.2690277 -1.7454954 3 2
0.4024277 4.3795791 -0.51431531 1 18
0.2973035 3.2355232 -1.632023 0 3
0.30220306 3.2888446 -1.5632954 0 4
1.2735237 13.859627 -0.97324234 2 20
2.4991565 27.198063 -0.63411897 27 22
2.5033071 27.243233 0 20 23
0.29887894 3.2526689 -1.188862 0 8
2.5053768 27.265757 0.63569731 7 24
0.30253702 3.292479 -1.1172082 1 9
2.5015035 27.223604 1.2748954 14 25
0.30397141 3.3080893 -1.0366042 3 10
2.5074322 27.288128 1.9162103 7 26
0.35535386 3.7176943 -2.2148223 13 0
0.33988923 3.5559042 -0.58687633 1 16
0.31821039 3.3291011 -1.8790226 2 1
0.3574889 3.740031 -0.52802277 0 17
0.31101674 3.2538416 -1.7379838 3 2
0.41885409 4.3820305 -0.51477993 1 18
0.31103015 3.2539818 -1.6418977 0 3
1.3140354 13.747373 -1.2884113 1 19
0.31666258 3.3129082 -1.5752746 0 4
2.5833161 27.026525 -1.8984922 7 20
2.5894744 27.090952 -1.269119 18 21
2.5883558 27.07925 -0.63156575 17 22
2.5894339 27.090528 0 20 23
0.30918843 3.234714 -1.1827056 0 8
2.5912097 27.109104 0.63226211 22 24
0.3162244 3.3083239 -1.1229703 1 9
2.5860527 27.055153 1.267442 22 25
0.31536672 3.2993507 -1.0342212 3 10
2.5935674 27.133772 1.9060259 22 26
2.4181283 25.298336 2.3709741 19 27
0.3673408 3.7130718 -2.2127821 12 0
0.35148418 3.5527935 -0.58655208 1 16
0.3287327 3.3228221 -1.8760835 2 1
0.36871862 3.726999 -0.5263527 0 17
0.32389078 3.27388 -1.7492511 3 2
0.43572909 4.4043388 -0.51756757 1 18
0.32041076 3.2387042 -1.634716 0 3
0.31803572 3.2146974 -1.5290688 0 4
2.6654558 26.942362 -1.8931907 22 20
2.6670969 26.95895 -1.2633426 18 21
2.6680951 26.96904 -0.62919831 26 22
2.6699953 26.988249 0 20 23
0.32157803 3.2505031 -1.188862 0 8
2.6698666 26.986946 0.62961608 22 24
0.32458121 3.280859 -1.1140071 1 9
2.6724076 27.01263 1.2658582 22 25
0.32762113 3.3115864 -1.0383914 3 10
2.6770446 27.059502 1.901422 22 26
2.5002377 25.272343 2.3693018 19 27
0.37912768 3.7066994 -2.2097216 10 0
0.36346552 3.5535717 -0.58687633 1 16
0.33868617 3.3113062 -1.8702054 2 1
0.38309205 3.7454588 -0.52913618 0 17
0.33420745 3.267518 -1.7464343 3 2
0.4477056 4.3771801 -0.51454765 1 18
0.3313317 3.2394021 -1.6356138 0 3
0.33605266 3.2855585 -1.5632954 0 4
2.7576346 26.961161 -1.8951439 22 20
0.33649373 3.2898707 -1.4723867 1 5
2.7611642 26.995668 -1.2654854 18 21
2.7626064 27.009769 -0.63035882 26 22
2.7653859 27.036945 0 20 23
0.33637205 3.2886813 -1.2032268 0 8
2.7621994 27.005791 0.63026595 22 24
0.34066546 3.3306575 -1.1312934 1 9
2.7701087 27.083118 1.2695849 22 25
0.33763054 3.3009853 -1.0354127 3 10
2.7704239 27.086201 1.9039332 22 26
2.5840371 25.263912 2.3693018 19 27
0.39224616 3.7070639 -2.2107418 11 0
0.37607619 3.5542438 -0.58720058 1 16
0.34932628 3.301434 -1.865307 1 1
0.3953312 3.7362204 -0.52802277 0 17
0.34524041 3.2628191 -1.7445564 3 2
0.46820873 4.4249759 -0.52035517 1 18
0.34527093 3.2631078 -1.6481816 0 3
0.34752023 3.2843654 -1.5632954 0 4
2.8590848 27.020813 -1.9000268 23 20
0.34432358 3.2541542 -1.4569308 1 5
2.8761988 27.182556 -1.2747091 9 21
2.8812838 27.230612 -0.63574374 9 22
2.8850064 27.265795 0 10 23
0.34646624 3.2744043 -1.1984385 0 8
2.8819149 27.236576 0.63588297 7 24
0.34949926 3.3030689 -1.1223302 1 9
0.35035729 3.3111782 -1.0389872 3 10
2.6730537 25.262661 2.3700452 19 27
0.40434787 3.7040329 -2.2097216 10 0
0.38871467 3.5608246 -0.58849752 1 16
0.36159462 3.3123913 -1.8721648 1 1
0.40814608 3.7388265 -0.52857947 0 17
0.35701436 3.2704337 -1.7492511 3 2
0.48223019 4.4174747 -0.51965821 1 18
0.35666952 3.2672749 -1.6508747 0 3
2.9515026 27.037271 -2.5374365 20 19
0.35978064 3.2957745 -1.5692849 0 4
2.9495211 27.019117 -1.9005849 23 20
2.9730258 27.234434 -1.2775972 4 21
2.975672 27.258675 -0.63662571 9 22
2.9782102 27.281927 0 10 23
0.35242561 3.2283986 -1.1820216 0 8
2.9778419 27.278551 0.63708997 7 24
0.35880351 3.2868233 -1.1172082 1 9
2.9793131 27.292028 1.2802991 7 25
0.3613334 3.3099983 -1.0389872 3 10
2.9863276 27.356285 1.924302 7 26
2.7587409 25.271475 2.3717172 19 27
0.41766119 3.706018 -2.211762 10 0
0.40114284 3.5594461 -0.58849752 1 16
0.37120301 3.2937822 -1.8623681 2 1
0.42163914 3.7413154 -0.52913618 0 17
0.36763796 3.2621486 -1.7454954 3 2
0.49965048 4.4335308 -0.52174896 1 18
0.36827326 3.2677858 -1.6517724 0 3
3.0480995 27.046591 -2.539294 15 19
0.37189105 3.2998874 -1.571852 0 4
3.0467291 27.03443 -1.9023986 23 20
3.067857 27.221905 -1.2775041 4 21
3.0717072 27.256069 -0.63681144 9 22
3.073879 27.275339 0 10 23
3.0766335 27.29978 0.6378327 7 24
0.37345824 3.3137934 -1.1268117 1 9
3.0750165 27.285433 1.2804854 7 25
0.37288612 3.308717 -1.0389872 3 10
3.0784566 27.315958 1.9222094 7 26
2.8480599 25.271585 2.3726461 19 27
0.39413506 3.4972641 -0.92132878 0 12
0.39535043 3.5080485 -0.83646911 1 13
0.42994776 3.7046125 -2.211762 10 0
0.41317099 3.5600569 -0.58882177 1 16
0.38312793 3.301193 -1.8672664 2 1
0.43404275 3.7398968 -0.52913618 0 17
0.37784225 3.2556493 -1.7426785 3 2
0.51182991 4.4101439 -0.51919365 1 18
0.3803432 3.2771986 -1.6571586 0 3
2.5225186 21.735092 -2.0413935 15 19
0.37637076 3.2429705 -1.5453264 0 4
3.1384263 27.042015 -1.9036541 23 20
3.158797 27.217537 -1.2777835 4 21
3.1625302 27.249704 -0.63690424 9 22
3.1677632 27.294794 0 10 23
0.38197571 3.291265 -1.205963 0 8
3.1671402 27.289427 0.6378327 7 24
0.38313386 3.301244 -1.1229703 1 9
3.1687005 27.30287 1.2817897 7 25
0.38385552 3.3074622 -1.0389872 3 10
3.169477 27.309561 1.9224885 7 26
2.9332199 25.273869 2.3737607 19 27
0.39993021 3.4459686 -0.90815967 0 12
0.40489975 3.4887881 -0.66173363 0 15
0.44287762 3.703089 -2.211762 11 0
0.42489326 3.5527139 -0.58784902 1 16
0.39713445 3.3206108 -1.8790226 2 1
0.4435679 3.7088606 -0.52496094 0 17
0.38920513 3.2543104 -1.7426785 3 2
0.52745813 4.4103026 -0.51942593 1 18
2.582535 21.593678 -2.0289459 15 19
3.2339933 27.040798 -1.9043517 23 20
3.2566385 27.230145 -1.2789015 4 21
3.2583499 27.244453 -0.63704354 9 22
3.2611279 27.267683 0 10 23
3.2628613 27.282175 0.63792551 7 24
0.39375585 3.2923608 -1.1204095 1 9
3.2632818 27.285692 1.2815102 7 25
0.39449239 3.2985191 -1.0366042 3 10
3.2721379 27.359741 1.9268134 7 26
3.0223768 25.271383 2.3745039 19 27
0.40874073 3.4176557 -0.90106863 0 12
0.41560468 3.4750481 -0.74390805 0 14
0.42151085 3.5244322 -0.66876942 0 15
0.45515433 3.7016003 -2.211762 9 0
0.43739399 3.557162 -0.58882177 1 16
0.40750477 3.3140841 -1.8760835 2 1
0.46142307 3.7525814 -0.53136295 0 17
0.39956298 3.2494965 -1.7408007 3 2
0.54886758 4.4637351 -0.5259304 1 18
0.39806116 3.2372828 -1.6383069 0 3
2.6543667 21.586973 -2.0291317 15 19
0.40659913 3.3067188 -1.5769858 0 4
3.3248582 27.039829 -1.9050493 23 20
3.3474014 27.223166 -1.2790879 4 21
3.3508685 27.251362 -0.6374613 9 22
3.3525038 27.26466 0 10 23
3.3540409 27.277161 0.6380648 7 24
0.40443966 3.2891567 -1.1197692 1 9
2.7512619 22.374987 1.0512948 4 25
0.40566081 3.299088 -1.0371999 3 10
3.3608947 27.332901 1.9256972 7 26
0.4127129 3.3564401 -0.96969229 1 11
3.1076164 25.273083 2.3756185 19 27
0.41865438 3.4047596 -0.89802963 0 12
0.42086536 3.4227407 -0.81710207 1 13
0.42760286 3.4775345 -0.74473977 0 14
0.4667792 3.6949506 -2.2087014 10 0
0.45017624 3.563524 -0.59011871 1 16
0.41914734 3.3179042 -1.8790226 2 1
0.47187799 3.7353115 -0.52913618 0 17
0.41077849 3.2516577 -1.7426785 3 2
0.56142515 4.4441528 -0.52383965 1 18
0.41327345 3.2714074 -1.6562608 0 3
2.7291772 21.603737 -2.0315468 15 19
0.41144443 3.2569289 -1.5538831 0 4
3.4150019 27.032616 -1.9053283 23 20
3.4396558 27.227772 -1.2798332 4 21
3.4417143 27.244066 -0.63755417 9 22
3.4446473 27.267284 0 10 23
3.4509869 27.317467 0.6392718 7 24
0.41558146 3.2896774 -1.1204095 1 9
3.4494214 27.305075 1.2834667 7 25
0.41611952 3.2939365 -1.0360085 3 10
3.4540102 27.3414 1.9270923 7 26
0.42528608 3.3664975 -0.97299993 4 11
3.1931498 25.276468 2.376919 19 27
0.42581958 3.3707204 -0.88941908 0 12
0.43831038 3.4695957 -0.82863003 1 13
0.43545392 3.4469845 -0.73850244 0 14
0.44487491 3.5215595 -0.66876942 0 15
0.48120716 3.7000382 -2.2127821 9 0
0.46272609 3.5579357 -0.58947027 1 16
0.42950717 3.3025129 -1.8711852 1 1
0.48684356 3.7433767 -0.53052789 0 17
0.42292228 3.2518814 -1.7436175 3 2
0.58027309 4.4617639 -0.52616268 1 18
0.42549238 3.2716429 -1.6571586 0 3
1.4073834 10.821477 -1.0180957 4 19
0.42431232 3.2625694 -1.5573056 0 4
3.5174105 27.045633 -1.907142 23 20
3.5412383 27.228848 -1.2804854 4 21
3.5431004 27.243164 -0.6378327 9 22
3.5456028 27.262405 0 10 23
3.5451634 27.259027 0.6382041 7 24
0.42617065 3.2768583 -1.1165681 1 9
3.5528331 27.318001 1.2846779 7 25
0.42892918 3.2980688 -1.0377957 3 10
3.5544631 27.330534 1.9272319 7 26
3.2870622 25.274469 2.3778479 19 27
0.43742338 3.3633811 -0.88789958 0 12
0.44977012 3.4583163 -0.82632446 1 13
0.45414093 3.4919238 -0.74848217 0 14
0.45397782 3.4906697 -0.66321486 0 15
0.49279273 3.6933064 -2.2097216 9 0
0.47426203 3.5544252 -0.58914596 1 16
0.4427633 3.3183537 -1.8809819 1 1
0.49846956 3.7358522 -0.52969289 0 17
0.43463865 3.2574623 -1.7473732 3 2
0.59454143 4.4558768 -0.52569807 1 18
0.43515822 3.2613561 -1.65267 0 3
1.4279885 10.702267 -1.0073203 4 19
0.44015068 3.2987728 -1.5752746 0 4
3.6091959 27.049641 -1.9082581 23 20
0.44245139 3.3160157 -1.4894696 1 5
3.6293833 27.200937 0 40 23
0.43920717 3.2917016 -1.2086992 0 8
0.43653446 3.2716708 -1.1152875 1 9
3.634691 27.240717 1.2816033 30 25
0.43910697 3.2909508 -1.0360085 3 10
0.44700006 3.3501065 -0.96914101 2 11
3.3724444 25.275272 2.3789625 19 27
0.45036644 3.3753364 -0.8914451 0 12
0.46200895 3.4625928 -0.82770783 1 13
0.4631317 3.4710073 -0.74432391 0 14
0.46997076 3.5222638 -0.66951001 0 15
0.5048036 3.6899478 -2.2087014 11 0
0.48845312 3.5704312 -0.5920642 1 16
0.45352793 3.3151398 -1.8800023 1 1
0.50655943 3.7027824 -0.52523935 0 17
0.4447197 3.2507544 -1.7445564 3 2
0.6122753 4.4755306 -0.52825344 1 18
0.44960389 3.2864561 -1.6661355 0 3
1.4502428 10.600797 -0.99821681 4 19
0.44839147 3.2775939 -1.5658623 0 4
3.6988707 27.037525 -1.9082581 23 20
0.44576749 3.2584136 -1.464252 1 5
3.7268946 27.242371 -1.2822555 4 21
0.45546928 3.3293302 -1.2230641 0 8
0.45071933 3.2946098 -1.1236106 1 9
0.45079345 3.2951517 -1.0377957 3 10
0.45497927 3.3257484 -0.96252567 2 11
3.4575861 25.273815 2.3798916 19 27
0.46076959 3.3680739 -0.8899256 0 12
0.47269672 3.4552574 -0.82632446 1 13
0.48297969 3.5304222 -0.67136157 0 15
0.51775283 3.6933644 -2.211762 11 0
0.50056368 3.5707464 -0.59238845 1 16
0.46572846 3.3222511 -1.8849007 1 1
0.52240914 3.7265801 -0.52885783 0 17
0.45476103 3.2440155 -1.7417396 3 2
0.62793976 4.4793777 -0.52895033 1 18
0.46124336 3.290257 -1.6688287 0 3
1.4723929 10.503242 -0.98948497 4 19
0.45398709 3.2384946 -1.5478934 0 4
3.7907205 27.040918 -1.9093742 23 20
3.8180399 27.2358 -1.2825351 4 21
3.8211594 27.258053 -0.63903964 9 22
3.8216338 27.261438 0 10 23
3.8242128 27.279833 0.63955027 7 24
0.45664367 3.2574451 -1.1114461 1 9
3.8274696 27.303066 1.2857027 7 25
0.46463299 3.3144367 -1.044349 2 10
3.8369756 27.370878 1.9326729 7 26
0.47027507 3.3546841 -0.97134608 2 11
3.5430319 25.274044 2.3810062 19 27
0.47569573 3.393352 -0.89701658 0 12
0.48550236 3.4633071 -0.82863003 1 13
0.48478261 3.458173 -0.74224478 0 14
0.49086368 3.5015521 -0.66617733 0 15
0.53088766 3.6932373 -2.2127821 10 0
0.51021773 3.5494425 -0.58914596 1 16
0.47881186 3.3309605 -1.8907787 1 1
0.53936028 3.7521789 -0.53275466 0 17
0.46658537 3.2459042 -1.7436175 3 2
0.64724743 4.5027194 -0.53197026 1 18
1.499133 10.42905 -0.98298258 4 19
0.46889055 3.2619405 -1.5598726 0 4
3.8865142 27.037395 -1.9100718 23 20
3.9079778 27.18671 -1.280858 13 21
3.9179983 27.25642 -0.63931817 9 22
3.9241767 27.299402 0 10 23
3.9225507 27.28809 0.64006096 7 24
0.47636971 3.313971 -1.1312934 1 9
3.1885211 22.181652 1.0450528 13 25
0.47457066 3.3014557 -1.0407745 2 10
3.9262564 27.313869 1.9296036 7 26
0.4781535 3.3263803 -0.96362823 2 11
3.6335063 25.277288 2.3824925 19 27
0.48451057 3.3706048 -0.8914451 0 12
0.49509743 3.4442546 -0.82448 1 13
0.49406835 3.4370956 -0.73808658 0 14
0.54402786 3.693063 -2.2138023 9 0
0.52231789 3.5456874 -0.58882177 1 16
0.49323228 3.3482437 -1.9015552 0 1
0.55332148 3.7561517 -0.53358972 0 17
0.47842842 3.2477496 -1.7454954 3 2
0.66354102 4.5043631 -0.53243482 1 18
1.5294365 10.382382 -0.97908109 4 19
0.48554391 3.2960522 -1.5769858 0 4
3.982039 27.031559 -1.9106299 23 20
3.9976196 27.137325 -1.279181 13 21
4.014873 27.25445 -0.6395967 9 22
4.0171208 27.269707 0 10 23
4.0172038 27.270271 0.6399681 7 24
0.49235383 3.3422804 -1.1415372 1 9
3.2644801 22.160503 1.0445869 9 25
0.48720583 3.3073339 -1.0431573 2 10
4.0236182 27.313814 1.9305801 7 26
0.4903231 3.328495 -0.9647308 2 11
3.7231762 25.274303 2.3834214 19 27
0.49965781 3.3918626 -0.89752311 0 12
0.5031473 3.4155505 -0.81802434 1 13
0.5111959 3.4701874 -0.74557137 0 14
0.55627078 3.6912389 -2.2138023 10 0
0.53848356 3.5732086 -0.59368539 1 16
0.5032928 3.3396933 -1.8976364 0 1
0.56695408 3.7621298 -0.53470308 0 17
0.48893189 3.2443991 -1.7445564 3 2
0.68291378 4.5316024 -0.53591937 1 18
1.5549527 10.31818 -0.97350758 4 19
0.49216059 3.2658236 -1.5632954 0 4
4.0764084 27.04977 -1.9128619 23 20
4.0911555 27.147627 -1.2802991 13 21
4.1102901 27.274597 -0.64038593 9 22
4.1099072 27.272058 0 10 23
4.1055222 27.242962 0.63964313 7 24
0.49891621 3.3106518 -1.1312934 1 9
4.1176519 27.323448 1.2885908 7 25
0.49731651 3.3000367 -1.0413702 2 10
4.1215992 27.349644 1.9340681 7 26
0.5016439 3.3287518 -0.96528208 2 11
3.8081503 25.269693 2.3841646 19 27
0.50311756 3.3385308 -0.88384759 1 12
0.51911032 3.4446535 -0.82540226 1 13
0.52532363 3.4858832 -0.74931377 1 14
0.56862694 3.6858747 -2.211762 10 0
0.54884607 3.5576539 -0.5914157 1 16
0.51574427 3.343086 -1.9005754 0 1
0.58763134 3.8090625 -0.54166174 0 17
0.50159949 3.2513988 -1.7492511 3 2
0.69842404 4.5272274 -0.53568703 1 18
1.5806352 10.245774 -0.96719092 4 19
0.5071398 3.2873113 -1.5744189 0 4
4.1720161 27.043264 -1.9134202 23 20
4.1953306 27.194389 -1.2831872 4 21
4.204855 27.256128 -0.640293 9 22
4.2084279 27.279289 0 10 23
4.2118669 27.301582 0.64136076 7 24
0.5133577 3.3276162 -1.1376958 1 9
4.2148252 27.320757 1.2891499 7 25
0.50941426 3.3020544 -1.0425617 2 10
4.2139945 27.315372 1.9326729 7 26
0.51882899 3.3630815 -0.97575629 4 11
3.8990622 25.27396 2.3858368 19 27
0.52125734 3.3788221 -0.89499062 0 12
0.53320754 3.456284 -0.82863003 1 13
0.58111382 3.6856682 -2.2127821 10 0
0.55941045 3.5480165 -0.59011871 1 16
0.5265553 3.3396351 -1.8995959 0 1
0.58483577 3.7092748 -0.52774447 0 17
0.50742763 3.2183197 -1.7323501 2 2
0.7146697 4.5327358 -0.53661627 1 18
1.6059169 10.1854 -0.96198899 4 19
4.2641521 27.045048 -1.9145361 23 20
4.2932606 27.229666 -1.2855164 4 21
4.3011279 27.279564 -0.64117503 9 22
4.3022871 27.286915 0 10 23
4.3017511 27.283516 0.6412679 7 24
0.51907724 3.292206 -1.1261716 1 9
3.485513 22.10659 1.0436552 9 25
0.52155018 3.3078909 -1.0449446 2 10
4.3113832 27.344608 1.9357421 7 26
0.52818137 3.3499484 -0.97244865 2 11
3.9853284 25.276628 2.3873229 19 27
0.53185576 3.3732529 -0.89397764 0 12
0.54193753 3.4371958 -0.82448 1 13
0.54903752 3.4822271 -0.74931377 1 14
0.55588377 3.5256488 -0.67247248 0 15
0.59360725 3.6854186 -2.2138023 10 0
0.573057 3.5578322 -0.5920642 1 16
0.538737 3.3447561 -1.9035145 0 1
0.59713399 3.7073147 -0.52774447 0 17
0.52231026 3.2427704 -1.7464343 2 2
0.72906631 4.5264182 -0.53615165 1 18
1.63272 10.136765 -0.95790172 4 19
0.52519399 3.2606742 -1.5632954 0 4
4.3576279 27.054394 -1.9162103 23 20
4.3819528 27.205414 -1.2850505 4 21
4.3842616 27.219748 -0.64010733 18 22
4.387351 27.238932 0 10 23
4.3934817 27.276993 0.64145356 7 24
4.3927546 27.272478 1.2882183 7 25
0.53737521 3.3363016 -1.0544766 1 10
4.4007759 27.322277 1.935184 7 26
0.53837103 3.342484 -0.9707948 1 11
4.0672336 25.251476 2.3862083 19 27
0.54427052 3.3791111 -0.8960036 0 12
0.54869157 3.4065592 -0.81756324 1 13
0.56757313 3.5237858 -0.67247248 0 15
0.60766971 3.6866131 -2.2158427 9 0
0.58737636 3.5634971 -0.59336114 1 16
0.55184251 3.3479204 -1.9064536 0 1
0.61909193 3.7559097 -0.53498143 0 17
0.53447855 3.2425766 -1.7473732 1 2
0.74823517 4.5393963 -0.53801012 1 18
1.6633826 10.091416 -0.95418602 4 19
4.4570765 27.040211 -1.9163499 23 20
4.4663591 27.096525 -1.2806717 18 21
4.4687076 27.110773 -0.63792551 27 22
4.4741402 27.143734 0 20 23
4.4752111 27.15023 0.63885397 23 24
0.55252588 3.3520663 -1.1479396 1 9
4.4738321 27.141865 1.2828145 22 25
0.54742551 3.3211234 -1.0503064 1 10
4.4882269 27.229193 1.9297431 7 26
0.5518682 3.3480763 -0.97299993 1 11
4.1681728 25.287487 2.3910387 19 27
0.54909909 3.3312767 -0.88384759 0 12
0.57460731 3.4860301 -0.7509771 1 14
0.61932188 3.6811848 -2.2138023 8 0
0.59558946 3.5401218 -0.58979452 1 16
0.56294256 3.346072 -1.9064536 0 1
0.63778782 3.7909446 -0.54027003 0 17
0.55108881 3.2756147 -1.7661521 1 2
0.76559252 4.5506024 -0.53963619 1 18
0.54766017 3.255235 -1.6580564 0 3
1.6912242 10.052462 -0.95102775 4 19
4.5354738 26.958387 -1.9116064 23 20
4.5333271 26.945625 -1.2742432 18 21
4.5366993 26.96567 -0.63486171 27 22
0.54739362 3.2536509 -1.2883636 0 7
4.5412402 26.992659 0 20 23
0.5456596 3.2433438 -1.1970705 0 8
4.5383577 26.975527 0.63509381 23 24
0.54100603 3.2156837 -1.1018426 1 9
4.5455909 27.018518 1.2776904 22 25
0.55875343 3.3211722 -1.0509021 1 10
4.5566583 27.084305 1.9205352 15 26
0.56488246 3.3576026 -0.97630751 1 11
4.253665 25.283342 2.3919675 19 27
0.56624293 3.3656893 -0.89347106 0 12
0.58214676 3.4602201 -0.83139676 1 13
0.584867 3.4763887 -0.74931377 1 14
0.63181597 3.6808062 -2.2148223 10 0
0.6086604 3.5459075 -0.59109145 1 16
0.57609957 3.3562162 -1.9133112 0 1
0.64231324 3.741961 -0.53358972 0 17
0.55597246 3.2389605 -1.7473732 3 2
1.6500764 9.6129446 -1.1406 2 18
0.56449831 3.28863 -1.6760104 0 3
1.7191577 10.015395 -0.94805515 4 19
0.56179994 3.2729101 -1.571852 0 4
4.6275411 26.958929 -1.9127226 23 20
0.56287521 3.2791741 -1.4813349 1 5
4.6307631 26.977699 -1.2764791 18 21
0.56167173 3.2721629 -1.3867519 0 6
4.6315022 26.982006 -0.63560444 27 22
0.56007051 3.2628348 -1.2927285 0 7
4.635119 27.003077 0 20 23
4.6325169 26.987919 0.63574374 23 24
0.56480849 3.290437 -1.1280923 1 9
4.6392131 27.026928 1.2788084 22 25
0.570409 3.3230643 -1.0520936 1 10
4.6447549 27.059214 1.9198377 23 26
0.57503718 3.3500268 -0.97465378 1 11
4.3341098 25.249472 2.3901098 19 27
0.57609087 3.3561654 -0.8914451 0 12
0.58867878 3.4294996 -0.82448 1 13
0.6467402 3.6904395 -2.2219639 15 0
0.62614518 3.5729201 -0.59595507 1 16
0.58961827 3.3644896 -1.9191893 0 1
0.66220969 3.778712 -0.53915662 0 17
0.56514227 3.2248242 -1.7408007 3 2
1.6829386 9.6032124 -1.1401354 4 18
1.750329 9.9877567 -0.94601148 4 19
4.7405658 27.050695 -1.9203957 23 20
0.58157301 3.3185813 -1.5000448 1 5
4.756639 27.14241 -1.2850505 4 21
4.7688088 27.211855 -0.64140713 27 22
4.7759628 27.252678 0 20 23
3.8645403 22.051903 0.5197826 17 24
0.57596469 3.2865791 -1.127452 1 9
4.7852621 27.305742 1.2927834 15 25
0.57904011 3.3041282 -1.0467319 1 10
4.7829266 27.292414 1.9375558 23 26
0.58772391 3.3536799 -0.97630751 1 11
4.4363213 25.314608 2.3977268 19 27
0.59080929 3.3712854 -0.8960036 0 12
0.6066941 3.4619281 -0.83278012 1 13
0.65867299 3.6865809 -2.2209435 14 0
0.64042073 3.5844233 -0.59822476 1 16
0.59893298 3.352217 -1.9133112 1 1
0.66533256 3.7238543 -0.5316413 0 17
0.57645518 3.2264092 -1.7426785 3 2
1.7161748 9.6053991 -1.1410645 4 18
1.7799404 9.9622936 -0.94415373 4 19
4.832356 27.04661 -1.9212328 23 20
6.8793793 38.503761 -1.8240209 27 21
4.8667645 27.239193 -0.64242846 27 22
4.8719454 27.26819 0 20 23
4.8720398 27.268719 0.64312476 15 24
0.59419268 3.3256857 -1.1415372 1 9
4.060935 22.728981 1.0767294 10 25
0.59268105 3.3172252 -1.0514979 1 10
4.8793778 27.30979 1.9399276 23 26
0.60662001 3.395241 -0.98898685 1 11
4.5321579 25.366407 2.4040434 20 27
0.60402834 3.3807356 -0.89904267 0 12
0.66937566 3.6724129 -2.2138023 11 0
0.65009522 3.5666342 -0.59563082 1 16
0.61156636 3.3552523 -1.9162503 1 1
0.68933409 3.7819111 -0.54027003 0 17
0.58866167 3.2295895 -1.7454954 3 2
1.7532489 9.6188946 -1.1433876 5 18
1.8104124 9.9325123 -0.94192427 4 19
4.9335155 27.066874 -1.9238836 23 20
7.0158639 38.491314 -1.8245798 27 21
4.9661012 27.245647 -0.64298552 18 22
4.9681563 27.256924 0 20 23
4.9729133 27.283022 0.64386749 23 24
0.59764129 3.2788546 -1.1261716 1 9
4.9745851 27.292194 1.293715 22 25
0.60083091 3.2963538 -1.0455405 1 10
4.9832444 27.339701 1.9432759 15 26
0.6081233 3.3363626 -0.97244865 1 11
4.623158 25.364149 2.405344 20 27
0.68249345 3.675247 -2.2168629 13 0
0.66047865 3.5566967 -0.59433383 1 16
0.62269038 3.3532057 -1.9162503 1 1
0.70042616 3.7718151 -0.53915662 0 17
0.59872419 3.2241471 -1.7436175 3 2
1.7880409 9.6286516 -1.1452459 9 18
1.8404341 9.9107904 -0.94043803 6 19
5.0261669 27.066053 -1.9249996 23 20
7.1456652 38.479614 -1.8251388 27 21
5.0619073 27.258516 -0.64368182 18 22
5.06108 27.254063 0 20 23
4.0349965 21.728573 0.51309788 22 24
0.61127949 3.2917578 -1.1312934 1 9
5.0690818 27.297153 1.2947398 22 25
0.6159426 3.3168688 -1.0526894 1 10
5.0789862 27.350487 1.9452291 15 26
0.63392717 3.4137161 -0.99560219 1 11
4.6890707 25.250782 2.3960547 9 27
0.69499928 3.6711516 -2.2158427 14 0
0.67435926 3.5621262 -0.59563082 1 16
0.63828427 3.3715696 -1.9280064 1 1
0.722799 3.8179965 -0.54611528 0 17
0.61260355 3.2359178 -1.7511292 3 2
1.8231207 9.6301575 -1.1461751 15 18
1.8724277 9.8906088 -0.93913758 6 19
5.1228485 27.060106 -1.9258368 23 20
7.2881274 38.497623 -1.8271885 27 21
5.1551738 27.230856 -0.64344972 27 22
5.1602831 27.257843 0 20 23
4.1145434 21.733999 0.51356208 5 24
0.62276703 3.2896039 -1.1312934 1 9
5.1673164 27.294994 1.2954853 22 25
0.62858313 3.3203259 -1.0544766 1 10
5.1688662 27.303183 1.9431363 23 26
0.84610093 4.4693065 -1.304316 1 11
4.7786727 25.242086 2.3967979 14 27
0.70651752 3.6654487 -2.2138023 15 0
0.68915546 3.5753732 -0.59822476 1 16
0.64748067 3.3591623 -1.9221284 1 1
0.73470545 3.8116891 -0.54555857 0 17
0.62099069 3.2217309 -1.7445564 3 2
1.8569235 9.6338129 -1.1473366 20 18
1.9025757 9.8706589 -0.93783706 6 19
5.2151928 27.056684 -1.9268134 23 20
7.4293542 38.543865 -1.8305424 27 21
5.2530098 27.25288 -0.64437813 18 22
5.2536683 27.256296 0 20 23
5.2601995 27.290182 0.64526016 15 24
0.63654065 3.3024051 -1.1364152 1 9
5.2623334 27.301252 1.2966032 22 25
0.6406737 3.3238475 -1.0562639 1 10
5.2631497 27.305487 1.9445314 23 26
0.89803088 4.6590295 -1.3605461 1 11
4.8646088 25.237835 2.3979125 14 27
0.71966332 3.6681495 -2.2168629 41 0
0.70290881 3.5827513 -0.59984595 1 16
0.6576103 3.3518634 -1.9191893 1 1
0.74696124 3.8072882 -0.54528028 0 17
0.63201177 3.2213867 -1.7454954 3 2
1.8896278 9.6315002 -1.1478013 27 18
1.9345334 9.8603859 -0.93746543 6 19
5.3106565 27.068605 -1.928906 23 20
7.5617561 38.542542 -1.8316606 27 21
5.3464413 27.251003 -0.64474952 18 22
5.3536577 27.287785 0 10 23
5.3526006 27.282396 0.64549226 23 24
0.65369046 3.3318837 -1.1472993 1 9
5.3574619 27.307175 1.2977213 23 25
0.65389872 3.3329453 -1.0598384 1 10
5.3548288 27.293755 1.9449501 23 26
0.92384064 4.7088485 -1.3759817 1 11
4.9528813 25.245012 2.400142 20 27
0.73074049 3.6536798 -2.2097216 52 0
0.71913099 3.5956326 -0.60243988 1 16
0.69587892 3.4793727 -1.9936448 2 1
0.76013291 3.8006408 -0.54472357 0 17
0.64658439 3.2329016 -1.7530069 3 2
1.9245244 9.6225615 -1.1475689 28 18
1.9675339 9.8376083 -0.93597919 6 19
5.4149127 27.074396 -1.9307197 32 20
7.7068796 38.534161 -1.8325921 27 21
5.4451027 27.225344 -0.64461023 27 22
4.4502945 22.251333 0 22 23
5.4572587 27.286123 0.64604932 23 24
0.66441095 3.3220341 -1.1447383 1 9
5.4610314 27.304987 1.2985598 23 25
0.66348845 3.3174217 -1.0556681 1 10
4.4238029 22.118876 1.5773335 11 26
0.93958402 4.6978908 -1.3737767 1 11
5.0481033 25.24036 2.4014425 15 27
0.74250883 3.6495509 -2.2087014 65 0
0.78378737 3.8524413 -0.55251729 0 17
0.65694875 3.2290092 -1.7520679 3 2
1.9587977 9.6278067 -1.1489627 28 18
1.9969678 9.8154192 -0.93449295 6 19
5.5062509 27.064112 -1.9312778 32 20
5.5345531 27.20322 -0.64451742 37 22
4.5348191 22.289368 0 22 23
0.66057646 3.24684 -1.205963 0 8
5.5345531 27.20322 0.64451742 23 24
0.66446805 3.2659676 -1.1261716 1 9
5.5419836 27.239744 1.2963237 30 25
0.67372382 3.3114614 -1.0544766 1 10
0.95362353 4.6872134 -1.3715715 1 11
5.1345496 25.237141 2.4027431 15 27
0.75356251 3.642015 -2.205641 60 0
0.7825315 3.7820239 -2.169987 11 1
0.77729732 3.7567267 -0.53915662 0 17
0.66872722 3.2320006 -1.7548848 3 2
1.9915216 9.6251488 -1.1494274 28 18
2.0331399 9.826293 -0.93616498 12 19
5.6012306 27.0711 -1.9330914 32 20
7.9772573 38.554585 -1.8360393 27 21
5.6401339 27.259121 -0.64628142 27 22
4.6658525 22.55036 0 15 23
0.67134064 3.2446313 -1.205963 0 8
5.6478314 27.296324 0.64716345 24 24
0.68105423 3.2915781 -1.1357751 1 9
4.6790032 22.613916 1.0769159 10 25
0.68934429 3.3316443 -1.0616256 0 10
5.6517615 27.315319 1.9505305 23 26
0.9672153 4.674612 -1.3688152 1 11
5.2214456 25.235575 2.4042294 15 27
0.76662457 3.6410456 -2.206661 55 0
0.80147564 3.8065691 -2.1856618 10 1
0.79897445 3.7946899 -0.54500192 0 17
0.68073195 3.2331028 -1.7567626 3 2
2.0267425 9.6259136 -1.1503565 31 18
2.0629127 9.7977018 -0.93412143 13 19
4.7194133 22.414619 -1.6017482 21 20
4.722508 22.429319 -1.0689034 13 21
4.7205997 22.420254 -0.53194505 6 22
5.739264 27.25835 0 20 23
4.7762136 22.684391 0.53821194 12 24
5.7474403 27.297184 1.3008889 23 25
0.70372254 3.3422956 -1.0657959 0 10
5.7515917 27.3169 1.9520651 23 26
0.98669475 4.6862583 -1.3732255 1 11
5.316062 25.248373 2.4072018 15 27
0.77725375 3.6317549 -2.2025805 51 0
0.81482327 3.8073001 -2.1876211 21 1
0.81569773 3.8113861 -0.54778534 0 17
0.68960106 3.2221935 -1.7520679 3 2
2.0607288 9.6288519 -1.1515181 39 18
2.0937226 9.7830181 -0.93337822 18 19
4.7899542 22.381287 -1.6004925 21 20
4.7847309 22.35688 -1.0662016 16 21
4.7790165 22.330179 -0.53018099 20 22
4.7798853 22.33424 0 15 23
5.8376722 27.2768 0.64762765 24 24
0.71732056 3.3517141 -1.1581832 1 9
5.8441954 27.30728 1.3022864 23 25
0.71360284 3.3343427 -1.0640087 0 10
5.8442283 27.307432 1.9527627 23 26
1.0078613 4.7092795 -1.3809432 1 11
5.4022546 25.242289 2.4083164 15 27
0.79065883 3.632381 -2.2046206 46 0
0.83070517 3.8163586 -2.1944788 15 1
0.82857674 3.8065803 -0.54750705 0 17
0.70197207 3.2249432 -1.7548848 2 2
2.0968647 9.6332464 -1.1529119 52 18
2.1299794 9.7853785 -0.93430716 25 19
4.8829079 22.432661 -1.6053755 15 20
4.8652973 22.351755 -1.0667605 13 21
4.8577905 22.317266 -0.53027385 20 22
4.8463383 22.264654 0 22 23
5.9375358 27.277746 0.64813828 24 24
0.7161209 3.2899446 -1.1376958 1 9
5.9420362 27.298422 1.3028454 23 25
0.72077161 3.3113105 -1.0574554 0 10
5.9441881 27.308308 1.9542973 23 26
1.0206146 4.6888251 -1.3759817 1 11
5.4937286 25.238844 2.4098029 15 27
0.80270094 3.6297388 -2.2046206 46 0
0.84373379 3.8152854 -2.1954587 20 1
0.84376222 3.8154142 -0.54917711 0 17
0.70999426 3.2105279 -1.7483122 2 2
2.1305165 9.6339979 -1.153841 52 18
2.1615598 9.7743721 -0.93393564 27 19
5.9912095 27.09169 -1.9402065 32 20
6.0187316 27.216145 -1.2998641 33 21
6.0296941 27.265715 -0.64832395 18 22
4.9179907 22.238695 0 22 23
6.0327163 27.279381 0.64864892 24 24
0.72620952 3.2838516 -1.1364152 1 9
6.0364189 27.296125 1.3036839 23 25
0.72886354 3.2958529 -1.0532852 0 10
6.0368748 27.298183 1.9549949 23 26
1.0332533 4.6722751 -1.3721228 1 11
5.5804105 25.234097 2.4111032 15 27
0.81611836 3.6302722 -2.206661 51 0
0.85742623 3.8140187 -2.1964383 24 1
0.86141676 3.8317695 -0.55196053 0 17
0.72158182 3.209753 -1.7492511 2 2
2.1663046 9.6361942 -1.1550026 56 18
2.1952219 9.7648258 -0.93374979 28 19
6.085722 27.070616 -1.9402065 32 20
8.6556396 38.502171 -1.840325 27 21
6.1208663 27.226946 -0.64790618 27 22
6.12778 27.2577 0 21 23
6.1283216 27.260109 0.64869535 24 24
0.74182141 3.2997832 -1.1428176 1 9
6.137341 27.30023 1.304895 23 25
0.74664283 3.3212299 -1.0622214 0 10
6.1342959 27.286684 1.9556925 23 26
1.0512397 4.6761432 -1.3743279 1 11
5.6741204 25.239723 2.4135184 15 27
0.82777047 3.6258688 -2.205641 51 0
0.87007034 3.8111544 -2.1964383 26 1
0.87059325 3.8134451 -0.54973382 0 17
0.73811829 3.2331669 -1.7633353 2 2
2.1991343 9.6328306 -1.1554673 52 18
2.2271507 9.7555504 -0.93356401 30 19
6.1839023 27.087244 -1.9428573 32 20
8.7872829 38.490784 -1.8411635 27 21
6.2151332 27.224043 -0.64832395 27 22
6.2225952 27.256727 0 21 23
0.74581754 3.266892 -1.2196438 0 8
5.0727696 22.220167 0.52915972 17 24
0.74854362 3.2788329 -1.1364152 1 9
6.2269564 27.275831 1.3047087 23 25
0.758928 3.3243196 -1.0640087 0 10
6.2354126 27.312872 1.9590409 23 26
1.0684536 4.6801291 -1.376533 1 11
5.7648859 25.251833 2.416491 15 27
0.83823514 3.6164005 -2.20156 46 0
0.88309669 3.8099465 -2.197418 24 1
0.89128327 3.8452661 -0.55474406 0 17
0.74883515 3.2307017 -1.7633353 1 2
2.231961 9.6293554 -1.1559318 48 18
2.2648828 9.7713909 -0.9357934 21 19
6.2781925 27.086025 -1.9442525 32 20
6.3006754 27.183022 -1.3012615 9 21
6.3053718 27.203285 -0.64832395 27 22
6.3115873 27.230099 0 21 23
0.76301169 3.2918637 -1.2299044 0 8
5.1450682 22.197382 0.52902049 17 24
0.75941187 3.2763329 -1.1364152 1 9
6.3083444 27.216108 1.3028454 15 25
0.77641356 3.349683 -1.0729449 0 10
6.3173862 27.255117 1.95639 23 26
1.0844007 4.6784325 -1.3770844 1 11
5.852634 25.250036 2.4181631 15 27
1.0742874 4.6348014 -1.2454906 0 12
0.85187817 3.6149788 -2.2025805 46 0
0.8994537 3.8168674 -2.2032959 26 1
0.9044615 3.8381181 -0.5541873 0 17
0.76512599 3.2468421 -1.7736636 1 2
2.2699711 9.6327124 -1.1573256 52 18
2.2970257 9.7475185 -0.93430716 16 19
2.592886 11.003015 -0.79048038 1 20
6.3782625 27.066408 -1.2967895 14 21
6.3885183 27.10993 -0.64665276 18 22
6.3906989 27.119183 0 20 23
0.77420902 3.2853866 -1.2285364 0 8
6.3857665 27.098253 0.64637429 23 24
0.77054518 3.2698388 -1.1351348 1 9
6.3842196 27.091688 1.2980008 15 25
0.78299195 3.3226571 -1.0652002 0 10
5.2718048 22.371113 1.6071892 6 26
1.0975709 4.6575856 -1.3721228 1 11
5.9506164 25.251675 2.4203925 15 27
1.0934857 4.6402497 -1.2480232 0 12
0.86346197 3.6104603 -2.20156 41 0
0.91089028 3.8087759 -2.200357 26 1
0.91303921 3.8177614 -0.55168223 0 17
0.77712178 3.2494392 -1.7764806 1 2
2.3028283 9.628994 -1.1577902 48 18
0.78982878 3.3025723 -1.7056345 0 3
2.3284132 9.7359743 -0.93393564 19 19
2.580636 10.790612 -0.77583152 1 20
6.4433618 26.942125 -1.2918518 13 21
6.4453707 26.950525 -0.64335686 27 22
6.4522247 26.979187 0 20 23
0.77985466 3.2608664 -1.2203279 0 8
6.4509511 26.97386 0.64391392 23 24
6.4586968 27.006247 1.2949263 22 25
0.79844761 3.3386106 -1.0711577 0 10
6.4666715 27.039593 1.9441129 23 26
1.1259793 4.7081442 -1.3881098 1 11
6.038033 25.247293 2.4218786 20 27
0.87461972 3.6042337 -2.1995199 46 0
0.92433912 3.8091233 -2.2023163 26 1
0.95231742 3.9244194 -0.56754792 0 17
0.7870611 3.243412 -1.7746027 1 2
2.3370917 9.6309566 -1.1589518 48 18
0.7877118 3.2460938 -1.6778058 0 3
2.3625672 9.735939 -0.93467873 19 19
2.5792387 10.628824 -0.76480997 1 20
6.5439839 26.967205 -1.2940876 13 21
6.5516887 26.998955 -0.64502805 27 22
6.5548692 27.01206 0 20 23
0.79465353 3.2746999 -1.2264842 0 8
6.5540462 27.008669 0.64526016 23 24
5.2238798 21.527166 1.0330342 13 25
0.80366236 3.3118246 -1.0634129 0 10
6.5723071 27.083921 1.9488564 23 26
1.1461209 4.7230673 -1.3936225 1 11
6.1268959 25.248419 2.4239225 15 27
0.88842928 3.6061699 -2.2025805 51 0
0.93596065 3.7991018 -2.1983976 24 1
0.96790451 3.9287632 -0.56866133 0 17
0.79879963 3.2423596 -1.7755415 1 2
2.3725944 9.630455 -1.1598809 48 18
0.80459511 3.2658837 -1.6894759 0 3
2.3998699 9.741168 -0.93597919 21 19
2.6101182 10.594574 -0.76299632 1 20
6.6614895 27.039251 -1.2986529 19 21
6.6683664 27.067165 -0.64720982 27 22
6.66538 27.055042 0 20 23
0.80652839 3.273731 -1.2271682 0 8
6.6693234 27.071051 0.64730269 24 24
0.80541956 3.2692301 -1.1376958 1 9
6.681561 27.120724 1.3025659 31 25
0.81887084 3.3238297 -1.0681789 0 10
1.1658187 4.7321048 -1.3974814 1 11
6.2197504 25.246214 2.4257801 15 27
0.89996666 3.6015341 -2.20156 51 0
0.94982296 3.8010516 -2.2013369 26 1
0.99101156 3.9658823 -0.57450664 0 17
0.81040436 3.243119 -1.7774194 1 2
2.4078906 9.6360235 -1.161507 42 18
2.4326448 9.7350864 -0.93616498 25 19
6.767592 27.082907 -1.3018205 19 21
6.765851 27.075941 -0.64795262 37 22
6.7613711 27.058012 0 20 23
0.81236911 3.2509816 -1.2196438 0 8
6.761488 27.058479 0.64753479 24 24
0.82526094 3.302573 -1.0622214 0 10
6.7937522 27.187597 1.9595989 47 26
1.1805736 4.7244816 -1.396379 1 11
6.3097181 25.250565 2.4281955 15 27
0.91253215 3.5983713 -2.20156 46 0
0.96136999 3.7909524 -2.197418 26 1
1.005335 3.9643188 -0.57478493 0 17
0.82302165 3.2454059 -1.7802364 1 2
2.4680786 9.7323284 -0.93672234 25 19
6.8660111 27.074615 -1.3025659 33 21
6.8632655 27.063789 -0.64823115 37 22
6.8572493 27.040064 0 31 23
0.83572304 3.2954912 -1.2374289 0 8
6.8593335 27.048283 0.64785975 24 24
5.4482179 21.483856 1.0335932 13 25
0.84288442 3.3237305 -1.0699662 0 10
6.883213 27.142447 1.9580642 55 26
1.197057 4.7203326 -1.396379 1 11
6.4046688 25.255411 2.4307964 15 27
0.92403072 3.5936596 -2.2005398 46 0
0.97393519 3.7877436 -2.197418 28 1
1.0224206 3.9763091 -0.57701176 0 17
0.83465809 3.2460794 -1.7821143 1 2
2.5028162 9.7337341 -0.93765134 28 19
6.9652038 27.088463 -1.3043361 38 21
6.9664135 27.093168 -0.64948452 37 22
6.9628119 27.079161 0 31 23
0.83681768 3.2544782 -1.2230641 0 8
6.9723878 27.116402 0.65004158 32 24
6.9865966 27.171661 1.3083422 55 25
0.85104829 3.3098228 -1.0663917 0 10
6.9855981 27.167778 1.961552 55 26
1.2045636 4.6846838 -1.3870072 1 11
6.5007753 25.282248 2.4354408 5 27
5.407393 21.029961 2.5392869 16 28
0.93570185 3.5870831 -2.1984997 55 0
0.98803222 3.7876954 -2.1993773 29 1
1.0342956 3.9650495 -0.57589829 0 17
0.8486591 3.2533982 -1.7877477 1 2
2.5114989 9.6280184 -1.1635978 28 18
2.5382881 9.7307177 -0.93820864 30 19
7.0657759 27.087179 -1.3054541 47 21
7.0665021 27.089964 -0.64999515 37 22
7.0679016 27.095327 0 42 23
7.0680165 27.09577 0.65013444 24 24
7.083425 27.154839 1.308715 47 25
0.86597073 3.3197634 -1.0705619 0 10
7.083921 27.15674 1.9625286 32 26
1.2325563 4.7250972 -1.4002379 1 11
5.5460343 21.261137 2.0499394 3 27
5.8884096 22.573658 2.7281477 5 28
5.3664398 20.572649 2.9880466 6 29
0.94803262 3.5856233 -2.1995199 51 0
0.99523979 3.764169 -2.1876211 58 1
1.0489584 3.9673419 -0.57673335 0 17
0.85718709 3.2420297 -1.783053 1 2
2.5474775 9.6350002 -1.1654562 34 18
2.5720723 9.7280226 -0.938766 40 19
7.1596541 27.079048 -1.3061994 23 21
7.1614156 27.085711 -0.65045941 37 22
7.1551652 27.062071 0 42 23
7.1680593 27.11084 0.65106285 32 24
7.172421 27.127337 1.3085287 47 25
0.88185585 3.3353312 -1.0765194 0 10
7.1790447 27.152388 1.9639238 32 26
5.6195683 21.254179 2.0510542 3 27
5.5504241 20.992664 2.5392869 16 28
5.454381 20.629412 2.9989021 3 29
0.95991713 3.5824599 -2.1995199 51 0
1.00907 3.7659011 -2.1905601 26 1
1.0738978 4.0078421 -0.58313531 0 17
0.87387437 3.261344 -1.7952594 1 2
2.5876389 9.6572008 -1.169173 55 18
2.6089544 9.7367516 -0.94043803 55 19
7.2594705 27.092714 -0.65120214 37 22
7.2624617 27.10388 0 42 23
7.2646451 27.112028 0.65166634 32 24
7.277329 27.159365 1.3112304 39 25
0.88747519 3.3121028 -1.0699662 0 10
7.2809172 27.172756 1.9671326 24 26
6.1562462 22.975426 2.7815771 6 28
0.97168624 3.5739377 -2.1964593 46 0
1.0260673 3.7739551 -2.197418 11 1
1.0958538 4.0306354 -0.5870322 0 17
0.88535792 3.2564154 -1.7943205 1 2
2.6214511 9.641901 -1.1684761 61 18
2.6461887 9.7328882 -0.94099534 60 19
2.9147711 10.720755 -0.51810092 1 21
7.3655343 27.091009 -0.65180558 37 22
7.3685689 27.102169 0 42 23
7.3718295 27.114162 0.65236264 32 24
7.3820596 27.151791 1.312162 47 25
0.89860612 3.3051434 -1.0687746 0 10
6.0430751 22.2269 1.6106769 24 26
6.1836705 22.744022 2.1989381 4 27
6.2695942 23.060055 2.7945859 6 28
0.98581749 3.5789878 -2.20156 55 0
0.98633021 3.5808492 -0.61022168 1 16
1.0320951 3.7469976 -2.1837025 6 1
1.1249933 4.0842624 -0.59538257 0 17
0.89802831 3.2602711 -1.7980762 1 2
2.6555233 9.6408167 -1.1694053 61 18
2.6800387 9.7298193 -0.94155276 51 19
7.4611793 27.087639 -0.65231627 37 22
7.464252 27.098795 0 42 23
7.4659581 27.104988 0.65273404 32 24
7.4736571 27.13294 1.3124416 47 25
0.91767436 3.3315957 -1.0783067 0 10
7.4794483 27.153965 1.9695042 24 26
6.2236342 22.594761 2.1864905 4 27
5.7375178 20.829926 3.036479 9 29
0.99629289 3.5707285 -2.1984997 51 0
0.99607706 3.5699551 -0.60892475 1 16
1.0520118 3.7704263 -2.1993773 7 1
1.1566274 4.14537 -0.60484636 0 17
0.91168177 3.2674811 -1.8037099 1 2
2.6917477 9.6472635 -1.1712637 61 18
2.7154984 9.7323875 -0.94266748 60 19
7.5600939 27.09549 -0.65310538 37 22
7.5658932 27.116274 0 42 23
7.5660043 27.116673 0.65361607 32 24
7.5764723 27.15419 1.3146776 47 25
0.92871666 3.3285344 -1.0783067 0 10
5.9034934 21.158209 1.5360376 16 26
1.009688 3.5705395 -2.2005398 51 0
1.0122925 3.5797498 -0.61119437 1 16
1.065642 3.7684085 -2.200357 7 1
2.7194326 9.6166744 -1.4045349 6 17
0.92452425 3.2693765 -1.8065268 1 2
2.7286522 9.6492777 -1.1726575 61 18
2.7510824 9.7285976 -0.94322479 55 19
7.6606202 27.090097 -0.65361607 37 22
7.6539774 27.066607 0 42 23
7.6540914 27.067009 0.65305901 32 24
7.6782856 27.152567 1.3158888 47 25
0.94033056 3.3252721 -1.0783067 0 10
7.6852794 27.177299 1.9749453 24 26
1.0196279 3.5605567 -2.1964593 60 0
1.0187241 3.5574007 -0.607952 1 16
1.0786121 3.7665308 -2.2013369 8 1
0.93827707 3.2764785 -1.8121604 1 2
2.7633681 9.6497259 -1.1738191 57 18
2.7860677 9.7289934 -0.94415373 55 19
2.8523188 9.9603424 -0.72449076 1 20
7.7630682 27.108757 -0.65468371 37 22
7.7304721 26.994932 0 42 23
7.7388477 27.024179 0.65264118 32 24
7.7699304 27.132721 1.3161683 47 25
0.95608234 3.3386548 -1.0836684 0 10
7.7813973 27.172764 1.9764799 24 26
6.3654146 22.228128 2.1571367 4 27
0.98910052 3.4539547 -0.67691612 0 15
1.0334876 3.5619326 -2.1995199 60 0
1.0360841 3.5708814 -0.61087012 1 16
1.092724 3.7660918 -2.2032959 7 1
2.7886872 9.6112576 -1.4064835 30 17
0.95069182 3.2765756 -1.8140382 1 2
2.800354 9.6514673 -1.1752127 57 18
2.8227837 9.7287722 -0.94508266 55 19
7.8609843 27.093016 -0.65496224 37 22
7.827435 26.977388 0 42 23
7.8258834 26.97204 0.65203768 32 24
7.8779488 27.151484 1.3184043 48 25
0.96294171 3.3187947 -1.0783067 0 10
7.8856459 27.178013 1.9788517 32 26
1.2819824 4.4183741 -1.3192005 1 11
1.0186759 3.5108836 -0.68876588 0 15
1.0438402 3.5535338 -2.1964593 60 0
1.0590452 3.6052961 -0.61735493 1 16
1.1047165 3.7607744 -2.2023163 6 1
2.8278031 9.6266594 -1.410102 34 17
0.96055764 3.270016 -1.8121604 1 2
2.8357058 9.6535625 -1.1766067 57 18
2.8578389 9.7289095 -0.94601148 60 19
7.9575548 27.089817 -0.65551931 37 22
7.9292607 26.993496 0 42 23
7.9040203 26.90757 0.65110928 24 24
7.9747076 27.148211 1.3195223 48 25
7.9852943 27.18425 1.9812233 48 26
6.1910491 21.07612 2.049382 11 27
1.0264362 3.4942856 -0.68617368 0 15
1.0532955 3.5399754 -2.1903381 21 0
1.0811927 3.6337345 -0.62286711 1 16
1.1188328 3.760237 -2.2042756 6 1
2.8647809 9.6281185 -1.411772 34 17
0.97347802 3.2717206 -1.8149772 1 2
2.8722212 9.6531248 -1.1777681 57 18
2.8951917 9.7303257 -0.94712621 55 19
2.9228718 9.8233538 -0.71667796 33 20
0.97490728 3.2765241 -1.5220085 1 5
8.058917 27.084869 -0.65607637 37 22
8.0320005 26.994406 0 42 23
7.9967642 26.87598 0.65101647 24 24
8.0756989 27.14127 1.3205471 40 25
8.0835581 27.167685 1.9820604 56 26
6.1805363 20.771898 2.0218861 3 27
2.3317969 7.8368359 1.3433306 1 30
1.0459149 3.5151703 -0.69098765 0 15
1.0694907 3.5512886 -2.1995199 13 0
1.0881124 3.6131225 -0.61994886 2 16
1.1282768 3.7464902 -2.1983976 7 1
2.9001129 9.6299458 -1.4134421 34 17
0.98279214 3.2634022 -1.8121604 1 2
2.9093652 9.6606684 -1.1798589 57 18
2.9303074 9.7302074 -0.94805515 51 19
2.9444933 9.7773123 -0.71402723 6 20
3.3936942 11.268903 -0.2732375 2 22
8.1272221 26.98678 0 42 23
8.0938978 26.876123 0.65166634 24 24
8.1742811 27.14304 1.3219446 32 25
8.1816406 27.16748 1.9840137 32 26
2.3412626 7.77426 1.3339278 3 30
1.0456616 3.472163 -0.68321127 0 15
2.3367279 7.759202 1.5267643 2 31
1.0792564 3.5411403 -2.1954391 12 0
1.1023904 3.6170452 -0.62124586 2 16
1.1422205 3.7477314 -2.2013369 6 1
2.937808 9.6392202 -1.4162256 32 17
0.99618369 3.2685711 -1.8168551 1 2
2.943125 9.6566668 -1.1805558 52 18
2.9648831 9.728056 -0.94879836 48 19
2.9379318 9.6396265 -0.70467991 3 20
3.3855801 11.108402 -0.2696166 2 22
8.2271719 26.994114 0 42 23
8.1975584 26.896948 0.65282685 24 24
8.2724075 27.142538 1.323249 32 25
8.2815828 27.172642 1.9863853 32 26
2.3658817 7.7626772 1.3332791 3 30
1.0692037 3.5081568 -0.69098765 0 15
2.3515608 7.7156892 1.5197284 4 31
1.0907062 3.5322294 -2.1923785 13 0
1.132527 3.6676652 -0.63064885 1 16
1.1549209 3.7401874 -2.1993773 6 1
2.9742887 9.6321716 -1.4167823 32 17
1.0091997 3.2682722 -1.8187329 0 2
2.9826038 9.6591005 -1.1821818 42 18
3.0022829 9.7228298 -0.94935566 36 19
2.9579408 9.5792294 -0.70105255 3 20
3.107537 10.063693 -0.49117571 1 21
3.3873398 10.969829 -0.26655278 6 22
8.3343229 26.99053 0 42 23
8.3061209 26.899197 0.65361607 32 24
8.3836298 27.150209 1.3251122 32 25
8.3899555 27.170696 1.9884779 32 26
2.3809271 7.7105823 1.3258216 3 30
2.3548915 7.6262674 1.5038055 2 31
13.182448 -0 -1.8526725 15 17
7.35672 -0 -3.9116375 183 2
86.518417 -0 -10.117656 62 18
7.2274899 -0 -3.6303084 86 3
79.048729 -0 -7.3748775 34 19
22.592852 -0 -10.694069 201 4
57.232246 -0 -4.0020685 16 20
15.583259 -0 -6.9381137 215 5
97.10746 -0 18.29599 193 31
40.558262 -0 -6.6634779 82 16
30.04093 -0 -16.878874 44 1
25.44989 -0 -3.5767488 48 17
23.602955 -0 -12.549914 50 2
33.142151 -0 -3.8757164 44 18
25.25511 -0 -12.685432 48 3
23.55969 -0 -2.198009 56 19
23.229168 -0 -10.995262 56 4
39.926506 -0 -2.7919331 44 20
23.476292 -0 -10.452319 49 5
29.25421 -0 -1.3642423 46 21
26.076635 -0 -10.892054 55 6
22.629904 -0 -0.52539963 87 22
22.974541 -0 -8.9712591 49 7
23.654001 -0 0 55 23
23.657701 -0 -8.6106987 52 8
23.651627 -0 0.54912102 52 24
23.851191 -0 -8.0592651 49 9
25.670105 -0 1.197101 49 25
21.600801 -0 -6.7403097 48 10
26.146156 -0 1.8283172 46 26
21.762966 -0 -6.2404304 69 11
34.753086 -0 3.2423005 42 27
27.830179 -0 -7.2855377 13 12
3.4081776 -0 -1.8121604 1 2
10.0376 -0 -1.1738191 57 18
10.120053 -0 -0.94415373 55 19
10.360702 -0 -0.72449076 1 20
28.198402 -0 -0.65468371 37 22
28.080002 -0 0 42 23
28.110426 -0 0.65264118 32 24
28.22333 -0 1.3161683 47 25
3.4728532 -0 -1.0836684 0 10
28.264982 -0 1.9764799 24 26
23.121595 -0 2.1571367 4 27
3.5927875 -0 -0.67691612 0 15
1.0334876 3.5619326 -2.1995199 60 0
1.0360841 3.5708814 -0.61087012 1 16
1.092724 3.7660918 -2.2032959 7 1
